//X,Y,Z,R,G,B,C2C absolute distances (Z),C2C absolute distances,C2C absolute distances (X),C2C absolute distances (Y)
506
2.5834290981,1.1432728767,0.1175565869,239,255,0,-0.00011341,0.00065025,0.00012898,-0.00062716
2.5834276676,1.1539733410,0.1211551726,255,252,0,-0.00016483,0.00022094,0.00012755,0.00007331
2.5834264755,1.1645737886,0.1232737750,255,241,0,0.00007378,0.00014865,0.00012636,-0.00002623
2.5834255219,1.1752736568,0.1228423566,255,243,0,0.00063235,0.00064521,0.00012541,-0.00002635
2.5834245682,1.1859735250,0.1222709417,255,246,0,0.00035094,0.00037955,0.00012445,0.00007355
2.5834233761,1.1966737509,0.1240295246,255,237,0,0.00112952,0.00141442,-0.00057673,-0.00062621
2.5834224224,1.2072738409,0.1248281226,255,234,0,0.00046812,0.00074400,-0.00057769,-0.00002611
2.5834212303,1.2179740667,0.1262966990,255,226,0,-0.00010329,0.00017555,0.00012112,0.00007403
2.5834200382,1.2286745310,0.1296652853,255,209,0,-0.00037472,0.00040043,0.00011992,0.00007451
2.5834186077,1.2393749952,0.1335038841,255,190,0,-0.00009611,0.00017000,0.00011849,0.00007498
2.5834171772,1.2500754595,0.1360724717,255,177,0,-0.00012752,0.00018884,0.00011706,0.00007546
2.5834162235,1.2606754303,0.1361910701,255,177,0,-0.00041893,0.00044122,0.00011611,0.00007546
2.5834155083,1.2713752985,0.1354796439,255,180,0,0.00006965,0.00015441,0.00011539,0.00007534
2.5834145546,1.2820751667,0.1348982304,255,183,0,-0.00019176,0.00023564,0.00011444,0.00007522
2.5834138393,1.2927750349,0.1332768202,255,191,0,-0.00022317,0.00030556,0.00011373,0.00017500
2.5834131241,1.3034747839,0.1315153986,255,200,0,0.00066540,0.00069718,0.00011301,0.00017476
2.5834138393,1.3140729666,0.1177830100,240,255,0,-0.00880699,0.00901606,0.00011373,-0.00192702
2.5834138393,1.3247720003,0.1103775874,203,255,0,-0.00078242,0.00572453,0.00341392,-0.00452805
2.5834140778,1.3354706764,0.0998101830,150,255,0,0.00051418,0.00079810,-0.00058603,0.00017071
2.5834138393,1.3461698294,0.0935797691,118,255,0,0.00083077,0.00103090,-0.00058627,0.00016987
2.5834131241,1.3568695784,0.0924123526,112,255,0,0.00011435,0.00023372,0.00011301,0.00016963
2.5834121704,1.3674695492,0.0923999473,112,255,0,0.00015195,0.00020118,0.00011206,0.00006950
2.5834102631,1.3781704903,0.0990135372,146,255,0,0.00255053,0.00572718,0.00341034,-0.00382948
2.5834085941,1.3888713121,0.1056271195,179,255,0,0.00003712,0.00054098,0.00010848,-0.00052869
2.5834069252,1.3995721340,0.1122407019,213,255,0,-0.00162930,0.00164185,0.00010681,0.00017214
2.5834054947,1.4101725817,0.1151183024,227,255,0,0.00012830,0.00023950,0.00010538,0.00017262
2.5834035873,1.4208737612,0.1233298853,255,241,0,-0.00051011,0.00080390,-0.00059652,0.00017381
2.5834023952,1.4315738678,0.1246384829,255,234,0,-0.00088152,0.00090432,0.00010228,0.00017393
2.5834014416,1.4422739744,0.1252370626,255,231,0,-0.00053294,0.00056969,0.00010133,0.00017393
2.5834004879,1.4529739618,0.1256456375,255,229,0,-0.00013436,0.00032121,0.00010037,0.00027394
2.5833997726,1.4635735750,0.1232142448,255,242,0,-0.00033575,0.00039088,0.00009966,0.00017357
2.5833992958,1.4742732048,0.1190198287,246,255,0,-0.00001017,0.00019986,0.00009918,0.00017321
2.5833983421,1.4849730730,0.1182564199,243,255,0,-0.00061358,0.00075390,0.00009823,-0.00042689
2.5833978653,1.4956725836,0.1148520038,225,255,0,0.00002200,0.00029046,0.00009775,0.00027263
2.5833969116,1.5063726902,0.1158915833,231,255,0,-0.00047842,0.00055909,0.00009680,0.00027263
2.5833957195,1.5169728994,0.1172371879,237,255,0,0.00013719,0.00024050,0.00009561,0.00017285
2.5833947659,1.5276728868,0.1178077683,240,255,0,-0.00011223,0.00030986,0.00009465,0.00027287
2.5833935738,1.5383731127,0.1192643642,248,255,0,0.00012437,0.00031431,0.00009346,0.00027311
2.5833923817,1.5490733385,0.1211129427,255,252,0,0.00002294,0.00028941,0.00009227,0.00027335
2.5833914280,1.5597733259,0.1208315268,255,253,0,-0.00015847,0.00037436,0.00009131,-0.00032663
2.5833907127,1.5703731775,0.1188151315,246,255,0,-0.00040487,0.00049677,0.00009060,0.00027323
2.5833902359,1.5810728073,0.1160537153,231,255,0,-0.00132629,0.00135704,0.00009012,0.00027275
2.5833899975,1.5917719603,0.1099182963,201,255,0,-0.00076170,0.00083420,0.00008988,-0.00032806
2.5833892822,1.6024717093,0.1080558822,192,255,0,0.00003588,0.00034208,0.00008917,-0.00032830
2.5833885670,1.6131713390,0.1053114682,177,255,0,-0.00055853,0.00065406,0.00008845,-0.00032866
2.5833871365,1.6237717867,0.1094990671,198,255,0,0.00189906,0.00256665,0.00138712,-0.00102818
2.5833857059,1.6344723701,0.1127106547,215,255,0,-0.00217935,0.00334826,-0.00191426,0.00167239
2.5833845139,1.6451727152,0.1156522408,230,255,0,-0.00066776,0.00074840,0.00008440,-0.00032723
2.5833833218,1.6558728218,0.1168348268,236,255,0,-0.00024518,0.00041727,0.00008321,-0.00032723
2.5833821297,1.6664730310,0.1186404228,245,255,0,-0.00055958,0.00065328,0.00008202,-0.00032699
2.5833814144,1.6771727800,0.1168380082,236,255,0,-0.00083199,0.00089772,0.00008130,-0.00032723
2.5833809376,1.6878722906,0.1129175946,216,255,0,-0.00037240,0.00050260,0.00008082,-0.00032771
2.5833804607,1.6985716820,0.1085701808,194,255,0,-0.00148982,0.00150935,0.00008035,-0.00022829
2.5833809376,1.7092702389,0.0970877632,136,255,0,-0.00012324,0.00027293,0.00008082,-0.00022972
2.5833811760,1.7198690176,0.0876593590,89,255,0,0.00001036,0.00034087,0.00008106,-0.00033092
2.5833804607,1.7305690050,0.0873599499,88,255,0,-0.00011705,0.00036020,0.00008035,-0.00033104
2.5833790302,1.7412694693,0.0911935419,106,255,0,-0.00082646,0.00109784,-0.00062108,0.00036943
2.5833778381,1.7519696951,0.0928911194,115,255,0,-0.00129588,0.00145587,-0.00062227,-0.00023031
2.5833764076,1.7626699209,0.0950727090,127,255,0,-0.00065029,0.00069400,0.00007629,-0.00023007
2.5833756924,1.7732698917,0.0948293060,125,255,0,-0.00010269,0.00035386,0.00007558,-0.00033009
2.5833747387,1.7839698792,0.0945688933,124,255,0,-0.00081011,0.00084545,0.00007463,-0.00023007
2.5833737850,1.7946698666,0.0939244777,121,255,0,-0.00102952,0.00105749,0.00007367,-0.00023007
2.5833730698,1.8053696156,0.0923980623,113,255,0,-0.00005594,0.00024809,0.00007296,-0.00023043
2.5833723545,1.8160693645,0.0903366432,103,255,0,0.00010964,0.00018523,0.00007224,-0.00013065
2.5833721161,1.8266686201,0.0850862414,77,255,0,0.00054824,0.00059941,0.00007200,-0.00023139
2.5833711624,1.8373686075,0.0847308338,74,255,0,0.00035083,0.00042623,0.00007105,-0.00023139
2.5833704472,1.8480683565,0.0829784200,65,255,0,0.00070742,0.00074769,0.00007033,-0.00023162
2.5833692551,1.8587684631,0.0838880017,71,255,0,-0.00016600,0.00022277,0.00006914,-0.00013149
2.5833680630,1.8693690300,0.0872226059,87,255,0,-0.00090840,0.00093977,0.00006795,-0.00023103
2.5833640099,1.8800721169,0.1105981842,204,255,0,0.00216819,0.00479381,-0.00063610,-0.00422788
2.5833616257,1.8907737732,0.1235577688,255,240,0,-0.00004223,0.00387454,0.00006151,0.00387383
2.5833582878,1.9014761448,0.1417263597,255,148,0,0.00003636,0.00014159,0.00005817,-0.00012386
2.5833568573,1.9121767282,0.1466149390,255,124,0,-0.00113507,0.00127445,0.00005674,0.00057673
2.5833559036,1.9227766991,0.1461035460,255,126,0,-0.00002645,0.00023166,0.00005579,-0.00022328
2.5833547115,1.9334768057,0.1472421288,255,121,0,-0.00105788,0.00124532,-0.00064540,-0.00012314
2.5833537579,1.9441767931,0.1471707076,255,121,0,-0.00054929,0.00056550,0.00005364,-0.00012326
2.5833532810,1.9548765421,0.1444092989,255,135,0,-0.00013070,0.00018751,0.00005317,-0.00012350
2.5833523273,1.9655764103,0.1433178782,255,140,0,-0.00102212,0.00102372,0.00005221,-0.00002360
2.5833518505,1.9761759043,0.1394064873,255,160,0,-0.00120351,0.00145953,0.00005174,-0.00082409
2.5833518505,1.9868748188,0.1317750663,255,198,0,-0.00158493,0.00159071,0.00005174,-0.00012517
2.5833518505,1.9975738525,0.1241436526,255,237,0,-0.00051635,0.00089248,0.00005174,-0.00072610
2.5833516121,2.0082728863,0.1185312346,244,255,0,-0.00141876,0.00209009,0.00135159,-0.00072718
2.5833513737,2.0189721584,0.1132078320,218,255,0,0.00024783,0.00179970,-0.00124860,0.00127220
2.5833511353,2.0295717716,0.1083184183,193,255,0,0.00146842,0.00157662,0.00005102,0.00057173
2.5833506584,2.0402710438,0.1035280153,169,255,0,0.00207801,0.00289525,0.00075054,0.00187111
2.5833501816,2.0509705544,0.0995195955,149,255,0,0.00094859,0.00095037,0.00005007,-0.00002956
2.5833497047,2.0616700649,0.0964191854,133,255,0,-0.00050181,0.00050515,0.00004959,-0.00003004
2.5833487511,2.0722701550,0.0962727815,133,255,0,-0.00037422,0.00039911,0.00004864,-0.00012994
2.5833480358,2.0829699039,0.0948463678,125,255,0,0.00001937,0.00005978,0.00004792,-0.00003004
2.5833470821,2.0936696529,0.0932669491,118,255,0,0.00016095,0.00017037,0.00004697,-0.00003028
2.5833466053,2.1043691635,0.0895235315,99,255,0,-0.00086547,0.00086726,0.00004649,-0.00003076
2.5833463669,2.1150684357,0.0835241154,68,255,0,-0.00043488,0.00076821,0.00004625,-0.00063157
2.5833451748,2.1256685257,0.0854917169,79,255,0,-0.00059928,0.00082735,0.00004506,0.00056863
2.5833423138,2.1363706589,0.1014053077,158,255,0,0.00050531,0.00089836,0.00074220,-0.00002933
2.5833399296,2.1470723152,0.1142448932,223,255,0,-0.00003511,0.00005986,0.00003982,-0.00002766
2.5833382607,2.1577732563,0.1198424771,251,255,0,0.00019248,0.00065680,0.00003815,-0.00062680
2.5833368301,2.1684734821,0.1219610646,255,247,0,0.00003106,0.00008778,0.00003672,0.00007343
2.5833356380,2.1790738106,0.1257496625,255,228,0,-0.00014034,0.00014712,0.00003552,-0.00002623
2.5833342075,2.1897740364,0.1279082447,255,217,0,0.00022824,0.00023223,0.00003409,-0.00002599
2.5833334923,2.2004740238,0.1271668226,255,221,0,0.00000682,0.00008138,0.00003338,0.00007391
2.5833327770,2.2111737728,0.1247154176,255,234,0,-0.00053458,0.00054062,0.00003266,0.00007367
2.5833320618,2.2218732834,0.1226240098,255,244,0,-0.00037599,0.00038438,0.00003195,0.00007319
2.5833311081,2.2324733734,0.1219926029,255,247,0,-0.00084740,0.00085114,0.00003099,0.00007343
2.5833299160,2.2431738377,0.1248711944,255,233,0,-0.00014880,0.00016880,0.00002980,0.00007391
2.5833284855,2.2538740635,0.1279197782,255,217,0,0.00017978,0.00019653,0.00002837,0.00007415
2.5833272934,2.2645745277,0.1301383525,255,206,0,-0.00031164,0.00032160,0.00002718,0.00007463
2.5833261013,2.2751748562,0.1328369528,255,192,0,-0.00044304,0.00081005,-0.00067401,0.00007486
2.5833249092,2.2858750820,0.1348355412,255,183,0,0.00087555,0.00087911,0.00002480,0.00007510
2.5833239555,2.2965750694,0.1352641284,255,180,0,0.00114413,0.00133111,-0.00067616,0.00007510
2.5833232403,2.3072748184,0.1323427111,255,195,0,-0.00002728,0.00008297,0.00002313,0.00007486
2.5833230019,2.3179740906,0.1273413002,255,220,0,-0.00084870,0.00099872,0.00002289,-0.00052595
2.5833225250,2.3285734653,0.1224998981,255,245,0,-0.00075010,0.00097762,0.00002241,-0.00062656
2.5833227634,2.3392722607,0.1129914895,217,255,0,0.00032149,0.00061827,0.00002265,-0.00052762
2.5833227634,2.3499712944,0.1054970697,179,255,0,-0.00063293,0.00065606,0.00002265,0.00017118
2.5833218098,2.3606712818,0.1055086553,179,255,0,-0.00115135,0.00134722,-0.00067830,0.00017118
2.5833210945,2.3713710308,0.1041992381,172,255,0,-0.00111076,0.00158388,0.00002098,-0.00112891
2.5833201408,2.3819708824,0.1045948416,174,255,0,-0.00112516,0.00131657,-0.00067997,0.00007081
2.5833182335,2.3926720619,0.1109634265,207,255,0,0.00013342,0.00021855,0.00001812,0.00017214
2.5833165646,2.4033727646,0.1167130098,236,255,0,-0.00061699,0.00093690,-0.00068355,0.00017285
2.5833148956,2.4140734673,0.1224585921,255,245,0,-0.00035141,0.00039221,0.00001478,0.00017357
2.5833139420,2.4247736931,0.1234271824,255,240,0,0.00035718,0.00055632,0.00001383,-0.00042629
2.5833122730,2.4353740215,0.1280257702,255,216,0,0.00037578,0.00041430,0.00001216,0.00017405
2.5833113194,2.4460742474,0.1296043694,255,209,0,0.00005437,0.00018291,0.00001121,0.00017428
2.5833101273,2.4567744732,0.1308629513,255,202,0,0.00102295,0.00110799,0.00001001,-0.00042558
2.5833094120,2.4674742222,0.1290415376,255,212,0,-0.00307846,0.00708808,-0.00529051,0.00357413
2.5833086967,2.4780740738,0.1273101270,255,220,0,-0.00174987,0.01035651,0.00730872,-0.00712585
2.5833079815,2.4887738228,0.1257487237,255,228,0,-0.00056128,0.00476052,0.00470805,-0.00042629
2.5833070278,2.4994738102,0.1246173084,255,234,0,0.00074731,0.00173023,-0.00129294,0.00087380
2.5833058357,2.5101740360,0.1270858794,255,222,0,-0.00181413,0.00273383,0.00130582,0.00157404
2.5833046436,2.5208742619,0.1290044636,255,212,0,-0.00119554,0.00122658,0.00000453,0.00027418
2.5833039284,2.5314743519,0.1284730732,255,214,0,-0.00119692,0.00144859,-0.00069618,-0.00042558
2.5833032131,2.5421741009,0.1268316656,255,222,0,-0.00133833,0.00156784,-0.00069690,-0.00042582
2.5833022594,2.5528738499,0.1257402450,255,228,0,-0.00099975,0.00103660,0.00000215,0.00027394
2.5833013058,2.5635738373,0.1247788370,255,233,0,-0.00098117,0.00101869,0.00000119,0.00027394
2.5833005905,2.5742735863,0.1227474213,255,243,0,-0.00085258,0.00115011,-0.00069952,-0.00032640
2.5832998753,2.5848734379,0.1222760156,255,246,0,-0.00071398,0.00076456,-0.00000024,0.00027347
2.5832991600,2.5955731869,0.1204745993,255,255,0,-0.00069540,0.00081591,-0.00000095,-0.00042677
2.5832986832,2.6062729359,0.1174341887,240,255,0,-0.00076581,0.00083275,-0.00000143,-0.00032711
2.5832982063,2.6169722080,0.1120067686,212,255,0,-0.00052323,0.00061745,-0.00000191,-0.00032783
2.5832974911,2.6276717186,0.1084513664,194,255,0,-0.00063863,0.00071808,-0.00000262,-0.00032830
2.5832970142,2.6382718086,0.1082819626,193,255,0,-0.00035804,0.00044953,-0.00000310,0.00027180
2.5832958221,2.6489720345,0.1101645455,203,255,0,-0.00068545,0.00101974,-0.00070429,0.00027204
2.5832939148,2.6596727371,0.1162251309,234,255,0,-0.00003487,0.00032926,-0.00000620,-0.00032735
2.5940918922,0.4170757830,0.1319738925,255,198,0,-0.00072610,0.00076026,0.00009179,0.00020579
2.5940909386,0.4277558327,0.1324624866,255,195,0,0.00028248,0.00036114,0.00009084,0.00020584
2.5940899849,0.4384358525,0.1326510757,255,195,0,0.00058107,0.00074295,0.00008988,-0.00045416
2.5940887928,0.4491161406,0.1346096545,255,185,0,-0.00043035,0.00049417,0.00008869,0.00022614
2.5940878391,0.4597961903,0.1349982470,255,183,0,-0.00025176,0.00035618,0.00008774,0.00023618
2.5940868855,0.4704762101,0.1352568418,255,182,0,-0.00042316,0.00049234,0.00008678,0.00023621
2.5940864086,0.4811556637,0.1309354305,255,204,0,0.00021543,0.00033794,0.00008631,0.00024566
2.5940854549,0.4918355644,0.1302640140,255,207,0,0.00072402,0.00092424,-0.00051451,0.00025555
2.5940845013,0.5025055408,0.1300325990,255,208,0,0.00114261,0.00127927,-0.00051546,0.00025553
2.5940821171,0.5131869316,0.1414211839,255,151,0,-0.00020881,0.00046128,0.00008202,-0.00040305
2.5940811634,0.5238670111,0.1417897791,255,149,0,-0.00018021,0.00033219,0.00008106,0.00026703
2.5940806866,0.5345465541,0.1383583695,255,166,0,-0.00060163,0.00071797,0.00008059,-0.00038344
2.5940825939,0.5452235937,0.1161559597,231,255,0,-0.00033404,0.00134865,0.00078249,-0.00104642
2.5940821171,0.5559030771,0.1119935438,210,255,0,0.00344355,0.00727624,-0.00121784,0.00629306
2.5940806866,0.5665833950,0.1145381331,223,255,0,0.00043813,0.00185973,0.00148058,-0.00103658
2.5940797329,0.5772634149,0.1146877185,224,255,0,-0.00574228,0.00595958,-0.00122023,-0.00102657
2.5940797329,0.5879424810,0.1077133119,189,255,0,-0.00052669,0.00261006,-0.00192022,-0.00168753
2.5940797329,0.5986216068,0.1007398963,154,255,0,0.00245389,0.00275910,0.00077963,0.00099158
2.5940787792,0.6092913747,0.0991664901,146,255,0,-0.00080851,0.00116761,0.00077868,0.00032139
2.5940775871,0.6199717522,0.1020720825,161,255,0,-0.00089791,0.00096264,0.00007749,-0.00033826
2.5940756798,0.6306527257,0.1092446670,197,255,0,0.00241467,0.00544759,-0.00322437,-0.00366729
2.5940740108,0.6413335204,0.1151032522,226,255,0,0.00018325,0.00037312,0.00007391,-0.00031650
2.5940725803,0.6520139575,0.1189888418,246,255,0,0.00129884,0.00133870,0.00007248,-0.00031602
2.5940713882,0.6626943946,0.1219714284,255,249,0,0.00199143,0.00215733,0.00077128,-0.00030559
2.5940701962,0.6733746529,0.1236000136,255,240,0,-0.00003999,0.00030617,0.00007010,-0.00029534
2.5940690041,0.6840546727,0.1242286116,255,237,0,-0.00053139,0.00065384,0.00006890,0.00037467
2.5940680504,0.6947347522,0.1248871908,255,234,0,-0.00145281,0.00159425,-0.00053191,0.00038475
2.5940668583,0.7054150105,0.1263757795,255,226,0,-0.00064422,0.00070364,0.00006676,-0.00027502
2.5940661430,0.7160848379,0.1253543645,255,231,0,-0.00033563,0.00043899,0.00006604,-0.00027514
2.5940651894,0.7267646790,0.1241529584,255,237,0,-0.00035704,0.00044955,0.00006509,-0.00026530
2.5940639973,0.7374450564,0.1271315366,255,222,0,-0.00032847,0.00052541,0.00006390,0.00040507
2.5940628052,0.7481253743,0.1292401254,255,212,0,0.00025013,0.00064105,-0.00053716,-0.00024462
2.5940618515,0.7588052750,0.1288987100,255,213,0,-0.00031129,0.00040076,0.00006175,-0.00024474
2.5940608978,0.7694852948,0.1289173067,255,213,0,-0.00010270,0.00026332,0.00006080,-0.00023472
2.5940597057,0.7801655531,0.1305558980,255,205,0,-0.00058410,0.00091190,-0.00054026,0.00044554
2.5940587521,0.7908456326,0.1313944906,255,201,0,-0.00007550,0.00023469,0.00005865,-0.00021434
2.5940577984,0.8015256524,0.1312330663,255,201,0,-0.00007693,0.00022582,0.00005770,-0.00020432
2.5940568447,0.8122055531,0.1303916574,255,206,0,0.00024165,0.00032158,0.00005674,-0.00020444
2.5940561295,0.8228752613,0.1285002530,255,216,0,0.00005025,0.00021814,0.00005603,-0.00020474
2.5940558910,0.8335545063,0.1228588447,255,244,0,-0.00244116,0.00244961,0.00005579,-0.00019550
2.5940556526,0.8442337513,0.1172154322,237,255,0,-0.00162457,0.00222973,0.00005555,-0.00152624
2.5940546989,0.8549137712,0.1168950200,235,255,0,0.00318502,0.00330874,0.00075459,0.00048375
2.5940537453,0.8655938506,0.1180766076,241,255,0,0.00402661,0.00453818,0.00145364,-0.00150615
2.5940525532,0.8762741685,0.1201831922,252,255,0,0.00549319,0.00574312,0.00145245,-0.00083584
2.5940515995,0.8869540691,0.1190297827,246,255,0,-0.00023022,0.00028278,0.00005150,-0.00015593
2.5940494537,0.8976352215,0.1284403652,255,216,0,0.00104037,0.00132238,0.00004935,-0.00081480
2.5940477848,0.9083160758,0.1347389519,255,184,0,0.00021896,0.00026106,0.00004768,-0.00013393
2.5940465927,0.9189963341,0.1365875453,255,174,0,-0.00074245,0.00075582,0.00004649,-0.00013369
2.5940456390,0.9296662807,0.1362861395,255,176,0,-0.00019386,0.00023986,0.00004554,-0.00013369
2.5940446854,0.9403463006,0.1361747235,255,177,0,-0.00013527,0.00018863,0.00004458,-0.00012368
2.5940437317,0.9510262609,0.1357033104,255,179,0,-0.00028668,0.00031149,0.00004363,-0.00011373
2.5940430164,0.9617061615,0.1352918893,255,181,0,-0.00000811,0.00011264,0.00004292,-0.00010383
2.5940427780,0.9723852277,0.1283004880,255,216,0,-0.00345951,0.00401348,0.00144267,-0.00143474
2.5940427780,0.9830643535,0.1213090718,255,252,0,-0.00324093,0.00638260,0.00274277,-0.00476563
2.5940427780,0.9937433600,0.1143236682,222,255,0,-0.00227633,0.00308830,0.00004268,-0.00208664
2.5940425396,1.0044225454,0.1073732525,188,255,0,0.00026325,0.00027768,0.00004244,-0.00007749
2.5940420628,1.0150719881,0.1033128500,167,255,0,-0.00354715,0.00354970,0.00004196,-0.00012803
2.5940406322,1.0257725716,0.1076274365,189,255,0,0.00033744,0.00034097,0.00004053,-0.00002742
2.5940396786,1.0364726782,0.1085220203,193,255,0,-0.00016798,0.00017473,0.00003958,-0.00002730
2.5940382481,1.0471731424,0.1115766019,209,255,0,-0.00122340,0.00122429,0.00003815,-0.00002682
2.5940372944,1.0577731133,0.1123242006,213,255,0,0.00025420,0.00028651,0.00003719,-0.00012684
2.5940365791,1.0684728622,0.1104057878,203,255,0,0.00069579,0.00069727,0.00003648,-0.00002718
2.5940356255,1.0791728497,0.1099613756,201,255,0,-0.00017863,0.00018414,0.00003552,-0.00002718
2.5940346718,1.0898729563,0.1099669561,201,255,0,-0.00032304,0.00130615,-0.00126529,-0.00002706
2.5940327644,1.1005737782,0.1167835444,235,255,0,0.00043354,0.00044099,0.00003266,0.00007379
2.5940332413,1.1111723185,0.1052781418,177,255,0,0.00080814,0.00275122,-0.00256681,0.00057232
2.5940327644,1.1218718290,0.1017337292,160,255,0,-0.00065627,0.00065768,0.00003266,-0.00002813
2.5940315723,1.1325720549,0.1038023159,170,255,0,-0.00014769,0.00015356,0.00003147,-0.00002789
2.5940294266,1.1432733536,0.1138608977,220,255,0,0.00068090,0.00092586,0.00002933,-0.00062668
2.5940275192,1.1539742947,0.1209164858,255,253,0,0.00018649,0.00020260,0.00002742,0.00007427
2.5940263271,1.1645746231,0.1232250854,255,242,0,0.00016508,0.00016907,0.00002623,-0.00002539
2.5940251350,1.1752748489,0.1247236654,255,234,0,0.00035366,0.00035544,0.00002503,-0.00002515
2.5940241814,1.1859749556,0.1253022552,255,231,0,0.00082225,0.00082602,0.00002408,0.00007498
2.5940229893,1.1966750622,0.1268108338,255,224,0,0.00085083,0.00105590,0.00002289,-0.00062490
2.5940217972,1.2072752714,0.1279094368,255,218,0,0.00016944,0.00017260,0.00002170,-0.00002468
2.5940210819,1.2179750204,0.1267980188,255,224,0,0.00025801,0.00026951,0.00002098,0.00007498
2.5940198898,1.2286752462,0.1281066090,255,217,0,0.00027661,0.00028734,0.00001979,0.00007522
2.5940184593,1.2393757105,0.1318351924,255,198,0,0.00003520,0.00008548,0.00001836,0.00007570
2.5940172672,1.2500762939,0.1350837797,255,182,0,-0.00007622,0.00010920,0.00001717,0.00007629
2.5940160751,1.2606763840,0.1359123737,255,177,0,-0.00014763,0.00016700,0.00001597,0.00007641
2.5940153599,1.2713762522,0.1354409605,255,180,0,-0.00011905,0.00014222,0.00001526,0.00007629
2.5940141678,1.2820762396,0.1356895417,255,179,0,-0.00001046,0.00007828,0.00001407,0.00007629
2.5940134525,1.2927761078,0.1341781318,255,186,0,0.00010814,0.00020706,0.00001335,0.00017607
2.5940124989,1.3034760952,0.1342467219,255,186,0,-0.00008328,0.00019517,0.00001240,0.00017607
2.5940127373,1.3140749931,0.1255053133,255,230,0,-0.00331469,0.00432942,0.00201273,-0.00192499
2.5940127373,1.3247737885,0.1167579070,235,255,0,-0.00234209,0.00785843,0.00201273,-0.00722623
2.5940127373,1.3354728222,0.1088404953,195,255,0,-0.00063951,0.00109302,0.00071263,-0.00052714
2.5940129757,1.3461714983,0.0995030776,148,255,0,0.00211808,0.00226055,-0.00058699,-0.00052845
2.5940124989,1.3568708897,0.0951816663,127,255,0,0.00048467,0.00051408,0.00001240,0.00017095
2.5940117836,1.3674707413,0.0941652656,121,255,0,0.00053027,0.00053508,0.00001168,0.00007069
2.5940101147,1.3781715631,0.1003488451,153,255,0,0.00712685,0.00719271,-0.00058985,0.00077152
2.5940084457,1.3888723850,0.1065324321,183,255,0,0.00244243,0.00475386,0.00140834,-0.00382757
2.5940065384,1.3995732069,0.1127160117,215,255,0,0.00108601,0.00116687,0.00000644,-0.00042677
2.5940051079,1.4101738930,0.1176166162,240,255,0,0.00371662,0.00391363,0.00000501,-0.00122607
2.5940036774,1.4208743572,0.1205912083,255,255,0,0.00084121,0.00099191,0.00000358,-0.00052559
2.5940024853,1.4315745831,0.1230297908,255,243,0,-0.00035021,0.00039134,0.00000238,0.00017464
2.5940012932,1.4422748089,0.1244083717,255,236,0,-0.00051163,0.00054066,0.00000119,0.00017476
2.5940003395,1.4529747963,0.1245669574,255,234,0,-0.00038304,0.00047141,0.00000024,0.00027478
2.5939993858,1.4635747671,0.1243555620,255,236,0,-0.00057444,0.00060044,-0.00000072,0.00017476
2.5939989090,1.4742745161,0.1220041439,255,248,0,-0.00008585,0.00019450,-0.00000119,0.00017452
2.5939981937,1.4849741459,0.1187287271,245,255,0,0.00102872,0.00134998,-0.00000191,0.00087416
2.5939977169,1.4956736565,0.1154533103,228,255,0,0.00079331,0.00083920,-0.00000238,0.00027370
2.5939970016,1.5063734055,0.1133429036,218,255,0,-0.00042710,0.00050709,-0.00000310,0.00027335
2.5939955711,1.5169737339,0.1165384948,234,255,0,-0.00078151,0.00080059,-0.00000453,0.00017369
2.5939946175,1.5276739597,0.1178260893,240,255,0,-0.00001391,0.00027435,-0.00000548,0.00027394
2.5939936638,1.5383739471,0.1180626750,242,255,0,0.00030267,0.00040829,-0.00000644,0.00027394
2.5939924717,1.5490739346,0.1185362563,244,255,0,0.00003625,0.00027644,-0.00000763,0.00027394
2.5939912796,1.5597742796,0.1206328422,255,255,0,0.00012285,0.00034819,-0.00000882,-0.00032568
2.5939905643,1.5703741312,0.1195614412,249,255,0,-0.00025856,0.00037699,-0.00000954,0.00027418
2.5939898491,1.5810739994,0.1179860234,241,255,0,-0.00024398,0.00036698,-0.00001025,0.00027394
2.5939896107,1.5917731524,0.1116726100,210,255,0,-0.00001739,0.00027386,-0.00001049,0.00027311
2.5939888954,1.6024727821,0.1091561988,197,255,0,-0.00018380,0.00037548,-0.00001121,-0.00032723
2.5939881802,1.6131725311,0.1072337851,187,255,0,0.00150379,0.00154929,-0.00001192,0.00037253
2.5939872265,1.6237726212,0.1079413816,191,255,0,0.00347138,0.00354922,0.00068712,0.00027263
2.5939860344,1.6344729662,0.1103019714,203,255,0,-0.00036803,0.00167587,-0.00131392,0.00097299
2.5939848423,1.6451730728,0.1108095497,205,255,0,-0.00373045,0.00379493,-0.00061512,-0.00032687
2.5939836502,1.6558734179,0.1134091392,219,255,0,-0.00028086,0.00043109,-0.00001645,-0.00032663
2.5939822197,1.6664737463,0.1168867350,236,255,0,-0.00091326,0.00096996,-0.00001788,-0.00032628
2.5939815044,1.6771736145,0.1156653240,230,255,0,-0.00074468,0.00081328,-0.00001860,-0.00032640
2.5939807892,1.6878733635,0.1135879084,219,255,0,-0.00005209,0.00033132,-0.00001931,-0.00032663
2.5939800739,1.6985729933,0.1109594926,206,255,0,-0.00029051,0.00036920,-0.00002003,-0.00022697
2.5939800739,1.7092720270,0.1039850786,171,255,0,-0.00007492,0.00024076,-0.00002003,-0.00022793
2.5939800739,1.7198710442,0.0956706777,130,255,0,-0.00021632,0.00039417,-0.00002003,-0.00032890
2.5939800739,1.7305699587,0.0877652690,89,255,0,0.00043727,0.00057309,-0.00002003,0.00036991
2.5939793587,1.7412697077,0.0860618502,81,255,0,-0.00058615,0.00063012,-0.00002074,-0.00023031
2.5939781666,1.7519700527,0.0884764344,93,255,0,-0.00092456,0.00120929,-0.00062180,0.00047004
2.5939769745,1.7626703978,0.0909390152,106,255,0,-0.00012799,0.00026388,-0.00002313,-0.00022960
2.5939757824,1.7732704878,0.0919306204,110,255,0,-0.00113038,0.00134337,-0.00062418,0.00037050
2.5939745903,1.7839707136,0.0935962051,119,255,0,-0.00013179,0.00026565,-0.00002551,-0.00022924
2.5939736366,1.7946707010,0.0931497887,117,255,0,-0.00061421,0.00065613,-0.00002646,-0.00022924
2.5939726830,1.8053708076,0.0936713815,119,255,0,-0.00019662,0.00030325,-0.00002742,-0.00022924
2.5939719677,1.8160706758,0.0926029608,114,255,0,-0.00027004,0.00030074,-0.00002813,-0.00012934
2.5939712524,1.8266702890,0.0902135596,102,255,0,-0.00013944,0.00027027,-0.00002885,-0.00022972
2.5939707756,1.8373697996,0.0863581449,83,255,0,0.00013814,0.00027006,-0.00002933,-0.00023019
2.5939698219,1.8480696678,0.0856327340,79,255,0,-0.00033426,0.00040705,-0.00003028,-0.00023031
2.5939693451,1.8587692976,0.0833023190,68,255,0,-0.00024068,0.00027558,-0.00003076,-0.00013065
2.5939681530,1.8693696260,0.0846779123,74,255,0,-0.00050808,0.00055881,-0.00003195,-0.00023043
2.5939652920,1.8800717592,0.1007895023,155,255,0,0.00087950,0.00452027,-0.00133467,-0.00422823
2.5939621925,1.8907738924,0.1169010848,236,255,0,-0.00054891,0.00195296,-0.00003791,0.00187385
2.5939593315,1.9014759064,0.1330076605,255,192,0,0.00000766,0.00142261,-0.00134063,0.00047588
2.5939571857,1.9121772051,0.1429162621,255,142,0,0.00005627,0.00014172,-0.00004292,-0.00012279
2.5939559937,1.9227774143,0.1443548501,255,135,0,-0.00107515,0.00109883,-0.00004411,-0.00022256
2.5939550400,1.9334775209,0.1450734288,255,131,0,-0.00018658,0.00022766,-0.00004506,-0.00012243
2.5939538479,1.9441775084,0.1453220248,255,130,0,-0.00067797,0.00069051,-0.00004625,-0.00012255
2.5939531326,1.9548774958,0.1440706104,255,136,0,-0.00072940,0.00102775,-0.00004697,-0.00072253
2.5939526558,1.9655770063,0.1411591917,255,151,0,0.00006919,0.00008699,-0.00004745,-0.00002301
2.5939517021,1.9761768579,0.1396777928,255,158,0,-0.00091220,0.00092175,-0.00004840,-0.00012314
2.5939514637,1.9868762493,0.1353663802,255,180,0,-0.00014362,0.00019571,-0.00004864,-0.00012374
2.5939512253,1.9975752831,0.1284349561,255,215,0,-0.00031504,0.00102389,0.00065112,-0.00072467
2.5939512253,2.0082743168,0.1214935556,255,250,0,-0.00078645,0.00078838,-0.00004888,-0.00002575
2.5939507484,2.0189735889,0.1169321388,237,255,0,-0.00202786,0.00250892,0.00065064,-0.00132632
2.5939505100,2.0295732021,0.1119977385,212,255,0,0.00061774,0.00207695,0.00065041,0.00187325
2.5939502716,2.0402724743,0.1065033227,184,255,0,0.00414332,0.00731274,0.00135016,0.00587249
2.5939497948,2.0509717464,0.1019469053,161,255,0,0.00363290,0.00367796,-0.00005031,0.00057173
2.5939493179,2.0616712570,0.0987984911,145,255,0,0.00237849,0.00246567,0.00064921,-0.00002885
2.5939486027,2.0722711086,0.0960820913,132,255,0,-0.00008591,0.00016331,-0.00005150,-0.00012898
2.5939476490,2.0829710960,0.0965476781,134,255,0,-0.00013132,0.00014432,-0.00005245,-0.00002885
2.5939466953,2.0936708450,0.0954732597,129,255,0,0.00018826,0.00019784,-0.00005341,-0.00002909
2.5939462185,2.1043705940,0.0928108469,115,255,0,0.00018685,0.00019666,-0.00005388,-0.00002933
2.5939457417,2.1150701046,0.0887074396,94,255,0,0.00034544,0.00074042,-0.00065422,-0.00002980
2.5939452648,2.1256692410,0.0843250379,73,255,0,0.00160903,0.00173740,-0.00065470,-0.00003076
2.5939428806,2.1363708973,0.0962836221,133,255,0,0.00075462,0.00216571,-0.00005722,-0.00202918
2.5939397812,2.1470730305,0.1129772067,216,255,0,0.00040720,0.00075009,-0.00006032,-0.00062704
2.5939378738,2.1577742100,0.1202237904,253,255,0,0.00088379,0.00088907,-0.00006223,0.00007415
2.5939366817,2.1684746742,0.1238123775,255,238,0,0.00038238,0.00039472,-0.00006342,0.00007463
2.5939352512,2.1790750027,0.1264109761,255,225,0,0.00080098,0.00080399,-0.00006485,-0.00002503
2.5939340591,2.1897749901,0.1277495474,255,218,0,-0.00037046,0.00037713,-0.00006604,-0.00002503
2.5939331055,2.2004749775,0.1278781444,255,218,0,-0.00044185,0.00045313,-0.00006700,0.00007486
2.5939321518,2.2111749649,0.1280767322,255,216,0,-0.00028327,0.00030077,-0.00006795,0.00007486
2.5939319134,2.2218744755,0.1238153204,255,238,0,-0.00028468,0.00030204,-0.00006819,0.00007439
2.5939311981,2.2324743271,0.1211839169,255,252,0,0.00001392,0.00010235,-0.00006890,0.00007439
2.5939302444,2.2431743145,0.1212025061,255,251,0,-0.00015749,0.00018766,-0.00006986,0.00007439
2.5939288139,2.2538747787,0.1249910891,255,232,0,-0.00022891,0.00025117,-0.00007129,0.00007486
2.5939269066,2.2645757198,0.1322196722,255,195,0,0.00152968,0.00175151,-0.00067306,-0.00052428
2.5939259529,2.2751758099,0.1329982728,255,192,0,0.00109828,0.00143182,-0.00067401,-0.00062418
2.5939238071,2.2858769894,0.1421968490,255,145,0,0.00104685,0.00174615,-0.00067616,-0.00122309
2.5939228535,2.2965769768,0.1416454315,255,148,0,0.00056542,0.00088550,-0.00067711,0.00007701
2.5939230919,2.3072757721,0.1332440227,255,190,0,-0.00034598,0.00036246,-0.00007701,0.00007582
2.5939223766,2.3179752827,0.1296426058,255,209,0,-0.00088739,0.00103387,-0.00007772,-0.00052476
2.5939221382,2.3285748959,0.1251612157,255,231,0,0.00035121,0.00036747,-0.00007796,0.00007486
2.5939216614,2.3392744064,0.1213997975,255,250,0,-0.00060020,0.00086724,0.00062156,0.00007439
2.5939221382,2.3499727249,0.1087723821,195,255,0,0.00054238,0.00057450,-0.00007796,0.00017262
2.5939221382,2.3606717587,0.1017469689,160,255,0,-0.00126303,0.00127702,-0.00007796,0.00017166
2.5939216614,2.3713712692,0.0986015499,145,255,0,-0.00110445,0.00130737,-0.00067830,0.00017118
2.5939204693,2.3819713593,0.0992131531,148,255,0,-0.00103685,0.00104234,-0.00007963,0.00007129
2.5939185619,2.3926725388,0.1068567336,186,255,0,0.00168674,0.00281480,0.00131845,-0.00182748
2.5939166546,2.4033734798,0.1145003214,225,255,0,0.00023032,0.00030023,-0.00008345,0.00017357
2.5939152241,2.4140741825,0.1192999110,249,255,0,-0.00350009,0.00350545,-0.00008488,0.00017428
2.5939137936,2.4247744083,0.1226084977,255,244,0,0.00004850,0.00029173,-0.00008631,0.00027442
2.5939121246,2.4353749752,0.1277570873,255,218,0,0.00004709,0.00020145,-0.00008798,0.00017500
2.5939109325,2.4460754395,0.1303756833,255,205,0,-0.00031431,0.00037086,-0.00008917,0.00017548
2.5939099789,2.4567754269,0.1302042603,255,206,0,-0.00025573,0.00032298,-0.00009012,0.00017548
2.5939090252,2.4674754143,0.1307528466,255,203,0,-0.00003715,0.00029241,-0.00009108,0.00027537
2.5939083099,2.4780752659,0.1290314496,255,212,0,-0.00280856,0.00350623,-0.00209165,0.00017524
2.5939075947,2.4887750149,0.1274100244,255,219,0,-0.00465998,0.00538474,-0.00269246,0.00017500
2.5939066410,2.4994747639,0.1259386092,255,227,0,-0.00074139,0.00085983,-0.00009346,-0.00042534
2.5939059258,2.5101747513,0.1250172108,255,232,0,-0.00057279,0.00071963,-0.00009418,-0.00042534
2.5939052105,2.5208745003,0.1232457906,255,240,0,-0.00203420,0.00216702,-0.00069475,0.00027442
2.5939044952,2.5314745903,0.1231643930,255,241,0,-0.00128561,0.00147204,-0.00069547,0.00017452
2.5939035416,2.5421745777,0.1237229779,255,238,0,-0.00129702,0.00136839,-0.00009656,-0.00042534
2.5939023495,2.5528745651,0.1234815642,255,240,0,-0.00054844,0.00062111,-0.00009775,0.00027466
2.5939011574,2.5635747910,0.1245501488,255,234,0,-0.00049984,0.00057897,-0.00009894,0.00027490
2.5939004421,2.5742745399,0.1226587296,255,243,0,-0.00002127,0.00029295,-0.00009966,0.00027466
2.5938999653,2.5848743916,0.1213273332,255,250,0,-0.00016267,0.00033436,-0.00010014,0.00027442
2.5938992500,2.5955741405,0.1198159158,252,255,0,-0.00106408,0.00115055,-0.00010085,-0.00042582
2.5938985348,2.6062736511,0.1170255020,237,255,0,-0.00124450,0.00129059,-0.00010157,-0.00032640
2.5938978195,2.6169734001,0.1137460917,221,255,0,-0.00100391,0.00106065,-0.00010228,-0.00032663
2.5938992500,2.6276707649,0.0945446715,124,255,0,-0.00012233,0.00215215,-0.00140071,-0.00162935
2.5938982964,2.6382710934,0.0959682763,131,255,0,-0.00090972,0.00230609,-0.00210166,0.00027108
2.5938968658,2.6489715576,0.1006488577,155,255,0,-0.00137115,0.00182162,-0.00070310,0.00097156
2.5938944817,2.6596729755,0.1103574410,204,255,0,-0.00064256,0.00075039,-0.00010562,0.00037289
2.6047925949,0.4170761108,0.1271152198,255,222,0,0.00017522,0.00033211,0.00019264,0.00020611
2.6047909260,0.4277568161,0.1326138079,255,195,0,-0.00164619,0.00167009,0.00019097,0.00020683
2.6047902107,0.4384366274,0.1311723888,255,202,0,-0.00076762,0.00094657,-0.00050974,0.00021663
2.6047892570,0.4491166174,0.1309909821,255,203,0,-0.00038902,0.00048840,0.00018930,0.00022662
2.6047880650,0.4597968459,0.1328695714,255,194,0,-0.00044043,0.00053429,0.00018811,0.00023684
2.6047871113,0.4704768956,0.1331981570,255,192,0,-0.00063184,0.00084755,-0.00051284,0.00023690
2.6047861576,0.4811567664,0.1320667416,255,198,0,0.00200674,0.00216928,0.00078607,0.00024676
2.6047852039,0.4918367863,0.1323453337,255,196,0,0.00121534,0.00129696,0.00018525,-0.00041321
2.6047840118,0.5025070310,0.1344239265,255,186,0,0.00293392,0.00311985,-0.00051594,0.00092703
2.6047828197,0.5131872892,0.1368625164,255,174,0,0.00053252,0.00069223,0.00018287,-0.00040269
2.6047821045,0.5238670707,0.1349011064,255,183,0,-0.00142889,0.00234542,-0.00181794,-0.00039291
2.6047818661,0.5345461369,0.1280196905,255,218,0,-0.00119030,0.00431158,-0.00181818,-0.00372386
2.6047818661,0.5452252030,0.1211382821,255,252,0,0.00201828,0.00358326,0.00018191,0.00295520
2.6047821045,0.5559040904,0.1125178710,213,255,0,0.00738787,0.00799862,0.00078201,0.00296408
2.6047811508,0.5665841103,0.1124474630,213,255,0,0.00252746,0.00565838,-0.00051880,-0.00503588
2.6047804356,0.5772637725,0.1104670465,203,255,0,-0.00109296,0.00449485,0.00018048,-0.00435621
2.6047799587,0.5879432559,0.1062436402,182,255,0,0.00120364,0.00425169,0.00277996,0.00298327
2.6047794819,0.5986227989,0.1024682224,163,255,0,0.00471322,0.00478983,0.00077939,-0.00034720
2.6047785282,0.6092926264,0.1010338143,156,255,0,-0.00114618,0.00120404,0.00017858,0.00032264
2.6047773361,0.6199729443,0.1038353965,169,255,0,-0.00049461,0.00062206,0.00017738,0.00033295
2.6047756672,0.6306536198,0.1090739891,196,255,0,0.00229399,0.00327189,0.00017571,-0.00232637
2.6047742367,0.6413343549,0.1141185760,222,255,0,-0.00104143,0.00146419,0.00017428,0.00101435
2.6047725677,0.6520148516,0.1183241680,243,255,0,0.00168417,0.00172977,0.00017262,0.00035483
2.6047713757,0.6626952887,0.1213827580,255,252,0,0.00609276,0.00637107,0.00077128,0.00169528
2.6047701836,0.6733756065,0.1236013398,255,240,0,0.00038134,0.00105094,0.00017023,-0.00096440
2.6047689915,0.6840556860,0.1245799363,255,235,0,0.00207993,0.00212034,0.00016904,0.00037569
2.6047680378,0.6947357655,0.1250785142,255,233,0,0.00260852,0.00267628,-0.00053191,-0.00027424
2.6047670841,0.7054159045,0.1258771122,255,228,0,0.00153711,0.00164979,-0.00053287,-0.00027412
2.6047661304,0.7160859108,0.1259756982,255,228,0,0.00235569,0.00239450,0.00016618,0.00039589
2.6047651768,0.7267658114,0.1257942766,255,229,0,0.00330427,0.00333319,0.00016522,0.00040579
2.6047639847,0.7374460101,0.1270728707,255,222,0,0.00203288,0.00236006,0.00076389,-0.00092399
2.6047627926,0.7481262684,0.1285314560,255,215,0,0.00223145,0.00225062,0.00016284,-0.00024372
2.6047618389,0.7588061094,0.1279200464,255,219,0,0.00079004,0.00084254,0.00016189,-0.00024390
2.6047608852,0.7694861293,0.1279986352,255,218,0,0.00087863,0.00092336,0.00016093,-0.00023389
2.6047599316,0.7801663280,0.1293772161,255,211,0,-0.00011279,0.00029724,0.00015998,-0.00022370
2.6047587395,0.7908464670,0.1303258091,255,206,0,-0.00024419,0.00036114,0.00015879,-0.00021350
2.6047580242,0.8015262485,0.1285143942,255,216,0,-0.00265561,0.00266810,0.00015807,-0.00020373
2.6047573090,0.8122060299,0.1270729899,255,222,0,-0.00382701,0.00390653,0.00075722,-0.00020397
2.6047565937,0.8228757977,0.1249915734,255,233,0,-0.00319842,0.00399776,-0.00184345,-0.00153422
2.6047558784,0.8335554004,0.1222901642,255,246,0,-0.00272983,0.00282383,-0.00054407,0.00047541
2.6047554016,0.8442350030,0.1191887632,247,255,0,-0.00439124,0.00489864,-0.00184464,0.00114501
2.6047546864,0.8549148440,0.1179953441,241,255,0,0.00071535,0.00075256,0.00015473,-0.00017518
2.6047534943,0.8655951023,0.1201559380,252,255,0,0.00691593,0.00711776,0.00075340,-0.00150490
2.6047523022,0.8762753606,0.1218645200,255,249,0,0.00784452,0.00819662,-0.00184774,-0.00149465
2.6047508717,0.8869557381,0.1248231083,255,234,0,0.00399311,0.00694524,0.00145078,-0.00549424
2.6047494411,0.8976361752,0.1281516999,255,217,0,0.00063170,0.00322757,0.00144935,-0.00281382
2.6047480106,0.9083167911,0.1327102780,255,194,0,0.00092028,0.00174331,0.00014806,-0.00147319
2.6047468185,0.9189971089,0.1348388642,255,183,0,0.00077887,0.00108715,0.00074673,-0.00013292
2.6047461033,0.9296668172,0.1330974549,255,192,0,-0.00285254,0.00301477,-0.00055385,-0.00080317
2.6047453880,0.9403465986,0.1313460469,255,201,0,-0.00420396,0.00424217,-0.00055456,-0.00012338
2.6047446728,0.9510262609,0.1288846433,255,213,0,-0.00536536,0.00541797,0.00074458,-0.00011373
2.6047441959,0.9617057443,0.1252332181,255,231,0,-0.00810678,0.00831715,-0.00185585,-0.00010425
2.6047439575,0.9723851085,0.1199918166,251,255,0,-0.00175818,0.01109193,-0.00985599,-0.00477487
2.6047439575,0.9830641150,0.1123443991,213,255,0,-0.00191560,0.00704979,-0.00585604,-0.00342590
2.6047434807,0.9937434793,0.1079499945,190,255,0,-0.00110000,0.00485346,-0.00325656,-0.00342649
2.6047430038,1.0044229031,0.1031445786,166,255,0,0.00154458,0.00285746,0.00144291,0.00192285
2.6047425270,1.0150724649,0.0992301702,147,255,0,-0.00127983,0.00188329,-0.00125742,0.00057244
2.6047410965,1.0257730484,0.1037767604,169,255,0,-0.00055324,0.00097302,-0.00055885,0.00057304
2.6047396660,1.0364735126,0.1074873433,188,255,0,-0.00010265,0.00017538,0.00013971,-0.00002646
2.6047384739,1.0471737385,0.1092289314,197,255,0,0.00091893,0.00092968,0.00013852,-0.00002623
2.6047372818,1.0577739477,0.1110265329,206,255,0,-0.00163347,0.00164406,0.00013733,-0.00012600
2.6047363281,1.0684739351,0.1110461131,206,255,0,-0.00007389,0.00015729,0.00013638,-0.00002611
2.6047353745,1.0791739225,0.1109597012,206,255,0,0.00120970,0.00121753,0.00013542,-0.00002611
2.6047344208,1.0898741484,0.1119552851,210,255,0,0.00174528,0.00323731,0.00073433,-0.00262582
2.6047332287,1.1005742550,0.1129498705,216,255,0,-0.00224013,0.00649897,-0.00056672,0.00607431
2.6047327518,1.1111737490,0.1091144681,196,255,0,-0.00193553,0.00531583,0.00413275,-0.00272620
2.6047322750,1.1218732595,0.1061160490,181,255,0,0.00007605,0.00069037,0.00013232,0.00067329
2.6047308445,1.1325738430,0.1104966402,204,255,0,0.00082664,0.00362351,-0.00326920,-0.00132620
2.6047291756,1.1432744265,0.1148762256,225,255,0,0.00294623,0.00353267,0.00142908,-0.00132561
2.6047275066,1.1539751291,0.1204078123,253,255,0,-0.00009219,0.00017438,0.00012755,0.00007510
2.6047263145,1.1645756960,0.1236864105,255,240,0,0.00102641,0.00103444,0.00012636,-0.00002432
2.6047251225,1.1752758026,0.1250649840,255,232,0,-0.00009501,0.00015900,0.00012517,-0.00002420
2.6047239304,1.1859760284,0.1263435781,255,226,0,-0.00008643,0.00016919,0.00012398,0.00007606
2.6047229767,1.1966761351,0.1271521598,255,222,0,-0.00142784,0.00160222,0.00072289,0.00007617
2.6047217846,1.2072762251,0.1280707568,255,217,0,-0.00277925,0.00293840,0.00072169,-0.00062382
2.6047208309,1.2179763317,0.1286993474,255,214,0,-0.00061065,0.00062716,0.00012088,0.00007629
2.6047196388,1.2286765575,0.1306079328,255,204,0,0.00209793,0.00219189,0.00011969,-0.00062346
2.6047184467,1.2393767834,0.1325065196,255,195,0,0.00216652,0.00258961,0.00071836,-0.00122321
2.6047172546,1.2500771284,0.1347051114,255,184,0,-0.00160488,0.00161101,0.00011730,0.00007713
2.6047160625,1.2606773376,0.1361436993,255,177,0,-0.00076631,0.00096651,-0.00058389,0.00007737
2.6047151089,1.2713772058,0.1355922818,255,180,0,-0.00044772,0.00046870,0.00011516,0.00007725
2.6047143936,1.2820770741,0.1349008679,255,183,0,-0.00061913,0.00063432,0.00011444,0.00007713
2.6047134399,1.2927770615,0.1349194497,255,183,0,-0.00017054,0.00027074,0.00011349,0.00017703
2.6047122478,1.3034772873,0.1361980438,255,176,0,0.00081804,0.00097727,0.00011230,-0.00052273
2.6047117710,1.3140769005,0.1325966418,255,195,0,-0.00079335,0.00101497,0.00011182,-0.00062311
2.6047115326,1.3247761726,0.1275152266,255,220,0,-0.00000477,0.00013519,0.00011158,0.00007617
2.6047120094,1.3354747295,0.1161218211,232,255,0,-0.00350818,0.00401815,0.00071192,-0.00182521
2.6047117710,1.3461737633,0.1088404059,195,255,0,0.00022040,0.00058134,0.00011182,-0.00052619
2.6047120094,1.3568725586,0.0999159887,151,255,0,0.00076399,0.00079122,0.00011206,0.00017262
2.6047110558,1.3674724102,0.0992265865,147,255,0,0.00303759,0.00479021,-0.00128889,0.00347245
2.6047096252,1.3781729937,0.1042851731,172,255,0,0.00993317,0.01014096,-0.00189042,0.00077295
2.6047079563,1.3888736963,0.1093437597,198,255,0,0.00431376,0.01089831,0.00410795,-0.00912631
2.6047065258,1.3995742798,0.1139673442,221,255,0,0.00468735,0.00593131,0.00270653,-0.00242567
2.6047050953,1.4101749659,0.1179369390,241,255,0,0.00507694,0.00677920,0.00410509,-0.00182498
2.6047039032,1.4208751917,0.1199425235,251,255,0,0.00174253,0.00288742,0.00140381,-0.00182486
2.6047027111,1.4315752983,0.1214111149,255,251,0,-0.00066888,0.00069908,0.00010276,0.00017536
2.6047015190,1.4422755241,0.1232097000,255,242,0,-0.00075030,0.00077721,0.00010157,0.00017548
2.6047005653,1.4529755116,0.1228182837,255,243,0,-0.00296172,0.00297620,0.00010061,0.00027549
2.6046998501,1.4635752439,0.1210668832,255,252,0,-0.00299311,0.00304041,0.00009990,-0.00052476
2.6046991348,1.4742751122,0.1193254665,248,255,0,-0.00438453,0.00447211,0.00009918,0.00087512
2.6046984196,1.4849747419,0.1168090552,235,255,0,-0.00203095,0.00271038,0.00139832,-0.00112522
2.6046979427,1.4956744909,0.1142096370,222,255,0,0.00117964,0.00121512,0.00009799,0.00027454
2.6046969891,1.5063742399,0.1126502231,214,255,0,-0.00004978,0.00029508,0.00009704,0.00027418
2.6046960354,1.5169743299,0.1141288206,222,255,0,0.00030882,0.00036739,0.00009608,0.00017428
2.6046946049,1.5276746750,0.1164554134,234,255,0,-0.00196458,0.00198595,0.00009465,0.00027466
2.6046934128,1.5383750200,0.1187810004,246,255,0,-0.00055900,0.00062996,0.00009346,0.00027502
2.6046926975,1.5490747690,0.1177775860,240,255,0,-0.00006241,0.00029665,0.00009274,0.00027478
2.6046915054,1.5597749949,0.1192041636,248,255,0,0.00044417,0.00055791,0.00009155,-0.00032496
2.6046903133,1.5703753233,0.1205427647,255,255,0,-0.00003724,0.00029220,0.00009036,0.00027537
2.6046895981,1.5810750723,0.1187903509,246,255,0,-0.00015965,0.00033039,0.00008965,0.00027502
2.6046893597,1.5917743444,0.1137239337,220,255,0,-0.00150607,0.00194816,0.00068927,-0.00102568
2.6046888828,1.6024736166,0.1086575165,195,255,0,-0.00150248,0.00154010,0.00008893,-0.00032640
2.6046881676,1.6131734848,0.1071481109,187,255,0,0.00006811,0.00038976,0.00008821,0.00037348
2.6046874523,1.6237733364,0.1063387021,183,255,0,0.00197870,0.00307545,-0.00061250,0.00227332
2.6046862602,1.6344735622,0.1072432920,187,255,0,0.00200329,0.00407943,0.00268626,-0.00232649
2.6046855450,1.6451734304,0.1062948778,183,255,0,-0.00114512,0.00199665,-0.00131440,0.00097346
2.6046838760,1.6558740139,0.1114674658,209,255,0,-0.00094254,0.00100086,0.00008392,-0.00032604
2.6046824455,1.6664744616,0.1143740639,223,255,0,-0.00014593,0.00032157,0.00008249,0.00027442
2.6046817303,1.6771743298,0.1140536442,222,255,0,-0.00026636,0.00042860,0.00008178,-0.00032568
2.6046805382,1.6878744364,0.1145332307,224,255,0,-0.00053677,0.00063293,0.00008059,-0.00032556
2.6046800613,1.6985740662,0.1121268198,212,255,0,-0.00018318,0.00030167,0.00008011,-0.00022590
2.6046793461,1.7092736959,0.1096504033,199,255,0,0.00020041,0.00031250,0.00007939,-0.00022626
2.6046798229,1.7198721170,0.0969970003,136,255,0,-0.00135300,0.00218882,0.00137973,-0.00102794
2.6046798229,1.7305712700,0.0900095925,101,255,0,-0.00243541,0.00397058,0.00267982,-0.00162876
2.6046793461,1.7412708998,0.0871771798,86,255,0,0.00056618,0.00068147,0.00007939,0.00037086
2.6046783924,1.7519707680,0.0863467604,83,255,0,0.00002576,0.00024365,0.00007844,-0.00022924
2.6046776772,1.7626706362,0.0853373483,77,255,0,-0.00000565,0.00024224,0.00007772,-0.00022936
2.6046762466,1.7732708454,0.0879159421,90,255,0,-0.00230306,0.00233397,0.00007629,0.00037086
2.6046748161,1.7839715481,0.0926885307,115,255,0,0.00201153,0.00221671,0.00007486,-0.00092840
2.6046738625,1.7946716547,0.0928281099,115,255,0,0.00004611,0.00024434,0.00007391,-0.00022829
2.6046726704,1.8053717613,0.0939356983,121,255,0,0.00001770,0.00024024,0.00007272,-0.00022829
2.6046717167,1.8160717487,0.0939542875,121,255,0,-0.00023571,0.00027778,0.00007176,-0.00012827
2.6046710014,1.8266716003,0.0926158801,114,255,0,-0.00052612,0.00057795,0.00007105,-0.00022840
2.6046702862,1.8373711109,0.0896934718,99,255,0,-0.00003353,0.00024178,0.00007033,-0.00022888
2.6046698093,1.8480707407,0.0865480602,83,255,0,-0.00035194,0.00042579,0.00006986,-0.00022924
2.6046690941,1.8587704897,0.0849656388,76,255,0,-0.00044936,0.00047272,0.00006914,-0.00012946
2.6046667099,1.8693721294,0.0962722376,133,255,0,0.00334224,0.00895660,-0.00793338,0.00247216
2.6046643257,1.8800736666,0.1078638285,191,255,0,0.00184382,0.00347899,-0.00193572,-0.00222635
2.6046619415,1.8907750845,0.1194604114,249,255,0,-0.00065958,0.00221629,0.00206184,0.00047505
2.6046595573,1.9014765024,0.1297089905,255,209,0,-0.00303102,0.00380852,-0.00134039,0.00187647
2.6046576500,1.9121775627,0.1379675716,255,167,0,-0.00117242,0.00230484,-0.00064230,0.00187755
2.6046562195,1.9227781296,0.1427161694,255,143,0,-0.00033383,0.00040475,0.00005627,-0.00022185
2.6046552658,1.9334781170,0.1428747624,255,142,0,-0.00037524,0.00039838,0.00005531,-0.00012183
2.6046543121,1.9441779852,0.1418133527,255,148,0,-0.00047664,0.00049502,0.00005436,-0.00012207
2.6046533585,1.9548780918,0.1417619288,255,148,0,-0.00061807,0.00063225,0.00005341,-0.00012195
2.6046526432,1.9655778408,0.1397205144,255,158,0,-0.00010948,0.00012351,0.00005269,-0.00002217
2.6046519279,1.9761776924,0.1390791237,255,161,0,-0.00063087,0.00064472,0.00005198,-0.00012231
2.6046512127,1.9868772030,0.1355576962,255,179,0,-0.00045231,0.00094031,0.00005126,-0.00082278
2.6046509743,1.9975765944,0.1306162924,255,204,0,-0.00143370,0.00160666,0.00005102,-0.00072336
2.6046507359,2.0082757473,0.1247248724,255,234,0,0.00128487,0.00192354,-0.00064921,0.00127578
2.6046504974,2.0189747810,0.1188254654,246,255,0,-0.00009453,0.00011014,0.00005054,-0.00002527
2.6046502590,2.0295741558,0.1129310653,216,255,0,-0.00005893,0.00185701,-0.00134969,0.00127411
