//X,Y,Z,R,G,B,C2C absolute distances (Z),C2C absolute distances,C2C absolute distances (X),C2C absolute distances (Y)
505
2.3261675835,1.7445639372,0.1448400319,255,121,0,-0.00009997,0.00048310,-0.00033236,-0.00033605
2.3261659145,1.7658632994,0.1433217973,255,128,0,-0.00116821,0.00126964,0.00036597,-0.00033665
2.3261649609,1.7871607542,0.1365935802,255,163,0,-0.00022642,0.00050247,0.00036502,0.00026071
2.3261644840,1.8084571362,0.1271953583,255,212,0,-0.00142464,0.00186242,0.00036454,-0.00114286
2.3261644840,1.8296513557,0.1123551801,219,255,0,-0.00205482,0.00242772,-0.00033545,-0.00124860
2.3261628151,1.8509513140,0.1121309623,219,255,0,-0.00095904,0.00101786,-0.00033712,0.00005126
2.3261611462,1.8722524643,0.1151257381,234,255,0,-0.00018426,0.00038858,-0.00033879,-0.00004756
2.3261594772,1.8935518265,0.1137365177,227,255,0,-0.00057348,0.00067857,0.00035954,-0.00004816
2.3261585236,1.9147492647,0.1069393381,192,255,0,-0.00013066,0.00044327,-0.00034142,-0.00025070
2.3261578083,1.9360470772,0.1011681184,162,255,0,-0.00191188,0.00216344,-0.00034213,-0.00095296
2.3261566162,1.9573447704,0.0949479043,130,255,0,-0.00196010,0.00223509,-0.00104332,-0.00025523
2.3261528015,1.9786529541,0.1162206754,240,255,0,0.00124068,0.00209102,-0.00034714,-0.00164700
2.3261499405,1.9999582767,0.1301214546,255,196,0,0.00225146,0.00250765,-0.00105000,-0.00034165
2.3261477947,2.0211596489,0.1346132755,255,173,0,0.00057328,0.00069150,-0.00035214,0.00015974
2.3261461258,2.0424597263,0.1347350627,255,172,0,0.00134507,0.00139211,-0.00035381,0.00005984
2.3261466026,2.0637519360,0.1141958311,230,255,0,-0.00142417,0.00350266,0.00294662,-0.00124812
2.3261473179,2.0850434303,0.0925816149,118,255,0,0.00118861,0.00231622,-0.00035262,-0.00195646
2.3261451721,2.1062455177,0.0976434350,144,255,0,0.00456543,0.00468824,-0.00105476,-0.00015450
2.3261425495,2.1275494099,0.1077262163,196,255,0,0.01421721,0.01472503,-0.00365734,0.00114942
2.3261401653,2.1488523483,0.1152979955,236,255,0,0.00079799,0.00442303,0.00094008,-0.00424767
2.3261377811,2.1701550484,0.1222157702,255,237,0,0.00024577,0.00054824,0.00033784,0.00035501
2.3261353970,2.1914579868,0.1299275458,255,197,0,0.00416754,0.00873178,-0.00766468,0.00035810
2.3261332512,2.2126605511,0.1365193725,255,163,0,0.00612937,0.00658583,-0.00166678,-0.00173950
2.3261311054,2.2339622974,0.1414311528,255,137,0,0.01036115,0.01036771,0.00033116,0.00016236
2.3261291981,2.2552635670,0.1445329487,255,121,0,0.00591294,0.01305706,0.01162910,-0.00053644
2.3261280060,2.2765626907,0.1417447031,255,136,0,0.00104471,0.00123229,-0.00037193,-0.00053740
2.3261249065,2.2977678776,0.1557165384,255,63,0,-0.00021346,0.00039013,0.00032496,-0.00003219
2.3261237144,2.3190662861,0.1510383189,255,87,0,-0.00129168,0.00135199,-0.00037622,-0.00013375
2.3261225224,2.3403637409,0.1450800896,255,118,0,-0.00141992,0.00146247,0.00032258,-0.00013638
2.3261215687,2.3616626263,0.1421418786,255,133,0,-0.00064813,0.00076295,-0.00037837,-0.00013733
2.3261201382,2.3829612732,0.1382436454,255,154,0,-0.00085635,0.00094489,0.00032020,-0.00023866
2.3261194229,2.4041583538,0.1309654713,255,191,0,-0.00167453,0.00199779,0.00031948,-0.00104165
2.3261191845,2.4254534245,0.1174772531,248,255,0,-0.00077274,0.00087366,0.00031924,0.00025344
2.3261184692,2.4467499256,0.1089450344,203,255,0,-0.00058497,0.00080391,0.00031853,-0.00045013
2.3261165619,2.4680511951,0.1119548082,219,255,0,-0.00056519,0.00069948,-0.00038338,0.00015116
2.3261148930,2.4892518520,0.1142216325,231,255,0,-0.00212837,0.00238955,-0.00108504,0.00005174
2.3261127472,2.5105533600,0.1174914092,248,255,0,-0.00542859,0.00550497,0.00091267,-0.00004673
2.3261110783,2.5318536758,0.1190841943,255,253,0,-0.00108580,0.00113045,0.00031114,-0.00004625
2.3261106014,2.5531501770,0.1096009761,207,255,0,0.00087097,0.00140273,-0.00108933,-0.00014973
2.3261094093,2.5744481087,0.1043047532,179,255,0,-0.00001524,0.00034506,0.00030947,-0.00015187
2.3261079788,2.5956470966,0.1015135720,165,255,0,-0.00137643,0.00147401,-0.00039196,-0.00035286
2.3261060715,2.6169481277,0.1039113551,177,255,0,-0.00044864,0.00069107,-0.00039387,0.00034809
2.3261044025,2.6382486820,0.1061661318,189,255,0,0.00051613,0.00064879,0.00030446,0.00024867
2.3261027336,2.6595492363,0.1068609133,192,255,0,-0.00032908,0.00051191,0.00030279,0.00024915
2.3476722240,0.4253240526,0.0900353566,100,255,0,0.00117636,0.00126386,-0.00012779,0.00044405
2.3476700783,0.4466052651,0.0931861475,117,255,0,-0.00070185,0.00081111,-0.00012994,0.00038525
2.3476665020,0.4678930342,0.1132829338,222,255,0,-0.00036707,0.00050686,-0.00013351,0.00032303
2.3476645947,0.4891743064,0.1165697202,239,255,0,0.00250972,0.00738914,0.00046468,0.00693431
2.3476622105,0.5104467273,0.1228685156,255,237,0,-0.00212149,0.00320931,0.00186229,0.00152671
2.3476607800,0.5317260623,0.1210743040,255,246,0,-0.00163569,0.00478861,0.00316072,-0.00320393
2.3476598263,0.5530044436,0.1169830933,241,255,0,0.00075309,0.00105433,-0.00014019,0.00072443
2.3476586342,0.5742823482,0.1115138754,213,255,0,0.00132388,0.00156864,-0.00084138,-0.00000763
2.3476564884,0.5955644250,0.1168366596,240,255,0,0.00070666,0.00072406,-0.00014353,-0.00006557
2.3476548195,0.6168354154,0.1193374619,254,255,0,0.00100746,0.00102809,-0.00014520,-0.00014460
2.3476531506,0.6381154656,0.1195452437,255,255,0,0.00117525,0.00146295,-0.00084686,-0.00020456
2.3476512432,0.6593961120,0.1212120280,255,246,0,0.00137202,0.00163477,-0.00084877,-0.00026387
2.3476526737,0.6806659102,0.0947698206,126,255,0,-0.00079918,0.00949155,0.00445271,-0.00834411
2.3476524353,0.7019400597,0.0795646012,47,255,0,-0.00005140,0.00093324,-0.00014758,0.00092006
2.3476531506,0.7232020497,0.0587403998,0,193,61,0.00067240,0.00825319,-0.00084686,0.00818205
2.3476531506,0.7444756031,0.0420701876,0,106,148,0.01114519,0.01697679,-0.00614691,-0.01123440
2.3476529121,0.7657508850,0.0298456773,0,43,211,-0.00017232,0.00048565,0.00045300,0.00003088
2.3476498127,0.7870361805,0.0435837656,0,115,139,0.01375177,0.01634900,0.00184989,0.00864619
2.3476457596,0.8083247542,0.0657965541,0,231,23,0.00401855,0.04050021,-0.04025435,0.00192475
2.3476421833,0.8296033740,0.0880103409,91,255,0,0.00138734,0.03511394,0.01044226,-0.03349662
2.3476383686,0.8508910537,0.1079821289,195,255,0,0.00143213,0.01864131,0.01113844,-0.01487893
2.3476350307,0.8721774817,0.1245889217,255,228,0,-0.00113107,0.00200119,0.00043511,-0.00159252
2.3476316929,0.8934640288,0.1416107118,255,139,0,0.00159071,0.00163050,-0.00016832,-0.00031596
2.3476293087,0.9147467017,0.1486124843,255,103,0,-0.00146751,0.00173029,-0.00087070,0.00028670
2.3476276398,0.9360171556,0.1497342736,255,97,0,-0.00087573,0.00100083,-0.00017238,-0.00045282
2.3476262093,0.9572963715,0.1476060748,255,108,0,-0.00003393,0.00022976,-0.00017381,0.00014639
2.3476245403,0.9785768986,0.1490978599,255,100,0,-0.00095214,0.00097207,-0.00017548,0.00008690
2.3476228714,0.9998570681,0.1494796425,255,97,0,-0.00053036,0.00055982,-0.00017715,0.00002706
2.3476216793,1.0211652517,0.1446214318,255,123,0,-0.00087857,0.00089716,-0.00017834,-0.00003469
2.3476212025,1.0423618555,0.1357332468,255,169,0,-0.00110675,0.00139978,-0.00017881,-0.00083816
2.3476212025,1.0636551380,0.1182750240,249,255,0,0.00096502,0.00259670,-0.00087881,-0.00224483
2.3476231098,1.0849418640,0.0840758085,71,255,0,-0.00183519,0.00205024,-0.00087690,-0.00025809
2.3476212025,1.1062440872,0.0899685845,102,255,0,-0.00180241,0.00188270,0.00042129,0.00034404
2.3476166725,1.1275541782,0.1157263592,236,255,0,0.00013636,0.00042148,-0.00018334,0.00035417
2.3476140499,1.1487578154,0.1254621744,255,222,0,0.00047217,0.00064758,0.00041413,0.00015783
2.3476123810,1.1700592041,0.1288039684,255,205,0,0.00042397,0.00049023,-0.00018764,0.00015926
2.3476104736,1.1913598776,0.1304357350,255,196,0,0.00002573,0.00020042,-0.00018954,0.00005984
2.3476092815,1.2126580477,0.1259475350,255,220,0,0.00049753,0.00053600,-0.00019073,0.00005805
2.3476076126,1.2338588238,0.1276493371,255,211,0,-0.00035067,0.00042416,-0.00019240,-0.00014114
2.3476057053,1.2551600933,0.1310311258,255,193,0,-0.00045888,0.00051761,-0.00019431,-0.00013995
2.3476040363,1.2764601707,0.1314429045,255,191,0,-0.00054710,0.00059773,-0.00019598,-0.00013983
2.3476028442,1.2977583408,0.1264946759,255,217,0,0.00050467,0.00059326,-0.00019717,-0.00024164
2.3476023674,1.3190547228,0.1171274707,243,255,0,-0.00008253,0.00041441,-0.00019765,0.00035477
2.3476009369,1.3402540684,0.1154892892,235,255,0,0.00022929,0.00039591,-0.00019908,0.00025403
2.3475987911,1.3615554571,0.1190590635,254,255,0,-0.00098094,0.00103344,-0.00020123,0.00025547
2.3475975990,1.3828547001,0.1171478406,244,255,0,-0.00041216,0.00048455,-0.00020242,0.00015473
2.3475964069,1.4041528702,0.1123376265,219,255,0,-0.00032237,0.00066692,-0.00020361,-0.00054717
2.3475952148,1.4253506660,0.1066724434,189,255,0,0.00015245,0.00026004,-0.00020480,-0.00004935
2.3475942612,1.4466491938,0.1026262194,169,255,0,-0.00068378,0.00071587,-0.00020576,-0.00005078
2.3475921154,1.4679514170,0.1085999981,199,255,0,-0.00061000,0.00066135,-0.00020790,-0.00014853
2.3475890160,1.4892562628,0.1210697815,255,245,0,-0.00120022,0.00133957,-0.00021100,0.00055623
2.3475861549,1.5105606318,0.1323325634,255,186,0,0.00103256,0.00138560,0.00038624,-0.00083935
2.3475840092,1.5317635536,0.1398743838,255,147,0,0.00066438,0.00077539,-0.00021601,-0.00033641
2.3475818634,1.5530650616,0.1441061497,255,124,0,0.00038615,0.00055580,-0.00021815,-0.00033498
2.3475801945,1.5743647814,0.1431679428,255,130,0,-0.00016205,0.00049089,0.00038028,0.00026476
2.3475792408,1.5956630707,0.1386397183,255,153,0,0.00025971,0.00037787,-0.00022078,0.00016308
2.3475778103,1.6168627739,0.1376915425,255,158,0,-0.00019845,0.00030448,-0.00022221,0.00006282
2.3475761414,1.6381620169,0.1360133290,255,166,0,-0.00089668,0.00112303,-0.00022388,-0.00063801
2.3475754261,1.6594600677,0.1308650970,255,193,0,-0.00082490,0.00090723,0.00037551,-0.00003994
2.3475747108,1.6807564497,0.1213068813,255,243,0,-0.00066312,0.00076295,0.00037479,-0.00004351
2.3475728035,1.7020568848,0.1225586608,255,237,0,-0.00046134,0.00053381,-0.00022721,-0.00014317
2.3475704193,1.7232609987,0.1331504881,255,181,0,0.00013049,0.00035619,-0.00022960,-0.00023901
2.3475680351,1.7445636988,0.1400822699,255,145,0,-0.00086772,0.00100077,0.00036812,-0.00033629
2.3475663662,1.7658634186,0.1395640373,255,148,0,-0.00121596,0.00129045,-0.00023365,0.00036347
2.3475649357,1.7871623039,0.1366458237,255,163,0,-0.00196418,0.00204520,0.00036502,-0.00043774
2.3475644588,1.8084594011,0.1289376020,255,203,0,-0.00116239,0.00126522,-0.00023556,-0.00044060
2.3475654125,1.8296493292,0.1029814184,171,255,0,-0.00021859,0.00032443,-0.00023460,0.00004935
2.3475637436,1.8509495258,0.1033691987,173,255,0,0.00060920,0.00096264,0.00036383,-0.00065053
2.3475611210,1.8722538948,0.1147049814,232,255,0,0.00003498,0.00024581,-0.00023890,-0.00004613
2.3475589752,1.8935552835,0.1186137572,252,255,0,0.00058376,0.00063315,-0.00024104,-0.00004470
2.3475575447,1.9147543907,0.1160775796,240,255,0,0.00053758,0.00074451,-0.00024247,0.00045443
2.3475570679,1.9360507727,0.1069033593,192,255,0,0.00075336,0.00091090,-0.00024295,0.00045073
2.3475570679,1.9573450089,0.0916461349,112,255,0,0.00106713,0.00488108,-0.00294304,0.00374496
2.3475518227,1.9786583185,0.1263719201,255,216,0,0.00130191,0.00168571,-0.00024819,-0.00104165
2.3475489616,1.9999632835,0.1393437088,255,148,0,0.00140370,0.00172865,-0.00095105,-0.00033665
2.3475470543,2.0211637020,0.1406955123,255,142,0,0.00064552,0.00071240,-0.00025296,0.00016379
2.3475456238,2.0424635410,0.1398673058,255,146,0,0.00013730,0.00029601,-0.00025439,0.00006366
2.3475441933,2.0637619495,0.1358090788,255,167,0,-0.00073092,0.00081031,0.00034428,0.00006199
2.3475458622,2.0850510597,0.1077928618,196,255,0,0.00057286,0.00150585,0.00034595,-0.00134897
2.3475441933,2.1062505245,0.1063476801,189,255,0,0.00768868,0.00803169,-0.00225592,0.00055051
2.3475418091,2.1275529861,0.1130664572,224,255,0,0.01483545,0.01512032,-0.00225830,0.00185299
2.3475394249,2.1488568783,0.1227162406,255,235,0,0.00675624,0.01673173,0.00373936,-0.01484323
2.3475372791,2.1701588631,0.1277780235,255,208,0,0.00624803,0.00649500,0.00173736,0.00035882
2.3475348949,2.1914615631,0.1348797977,255,171,0,-0.00014021,0.00140408,0.00103498,-0.00093842
2.3475327492,2.2126638889,0.1408516169,255,140,0,0.00226162,0.00249814,-0.00096726,-0.00043607
2.3475306034,2.2339653969,0.1451433897,255,118,0,0.00619338,0.00643667,-0.00166941,-0.00053453
2.3475289345,2.2552661896,0.1470351815,255,108,0,0.00789519,0.00797257,-0.00097108,-0.00053382
2.3475272655,2.2765672207,0.1491469592,255,97,0,0.00268696,0.00605012,-0.00297284,-0.00453281
2.3475246429,2.2977700233,0.1565387696,255,59,0,-0.00085123,0.00089517,-0.00027537,-0.00003004
2.3475234509,2.3190684319,0.1525105536,255,80,0,-0.00138944,0.00160321,0.00032353,-0.00073147
2.3475227356,2.3403649330,0.1435023397,255,126,0,-0.00041766,0.00051923,-0.00027728,-0.00013518
2.3475220203,2.3616626263,0.1372441053,255,159,0,-0.00100589,0.00105259,-0.00027800,-0.00013733
2.3475205898,2.3829615116,0.1342259049,255,174,0,-0.00173409,0.00204436,-0.00097942,0.00046158
2.3475193977,2.4041597843,0.1301177144,255,195,0,-0.00172229,0.00178441,0.00031948,-0.00034022
2.3475186825,2.4254567623,0.1222794950,255,237,0,-0.00134051,0.00144742,0.00031877,-0.00044322
2.3475172520,2.4467561245,0.1209712774,255,243,0,0.00208127,0.00315372,-0.00098276,0.00215602
2.3475158215,2.4680554867,0.1187830567,255,255,0,0.00075306,0.00324588,-0.00028419,-0.00314450
2.3475139141,2.4892573357,0.1238448694,255,228,0,0.00440487,0.00500616,-0.00228620,0.00065732
2.3475124836,2.5105559826,0.1202696562,255,247,0,-0.00396034,0.00397101,-0.00028753,-0.00004411
2.3475105762,2.5318570137,0.1230384335,255,232,0,-0.00088157,0.00093569,0.00031066,-0.00004292
2.3475091457,2.5531568527,0.1226602197,255,234,0,0.00148022,0.00151530,-0.00029087,-0.00014305
2.3475079536,2.5744552612,0.1179949939,251,255,0,-0.00101501,0.00107055,0.00030804,-0.00014472
2.3475091457,2.5956449509,0.0916738138,114,255,0,-0.00040419,0.00060580,-0.00029087,0.00034499
2.3475065231,2.6169481277,0.0997195914,156,255,0,-0.00009041,0.00047541,0.00030661,-0.00035191
2.3475043774,2.6382505894,0.1066253781,192,255,0,-0.00026462,0.00046927,-0.00029564,0.00025058
2.3475027084,2.6595509052,0.1074051559,195,255,0,0.00023516,0.00045814,0.00030279,0.00025082
2.3689708710,0.4253298938,0.1009575874,157,255,0,0.00057758,0.00242338,0.00177097,-0.00155011
2.3689711094,0.4466031790,0.0836053789,68,255,0,0.00158038,0.00162242,-0.00022888,-0.00028682
2.3689677715,0.4678888917,0.0984411687,145,255,0,0.00047517,0.00121117,0.00046778,-0.00101110
2.3689656258,0.4891721308,0.1067389473,188,255,0,0.00188895,0.00669790,0.00316572,0.00559214
2.3689625263,0.5104466081,0.1183057502,248,255,0,0.00015575,0.00192515,0.00116253,0.00152659
2.3689603806,0.5317291617,0.1249425262,255,226,0,-0.00851747,0.00861315,0.00116038,-0.00054085
2.3689584732,0.5530108213,0.1292343140,255,204,0,0.00050431,0.00056363,-0.00024152,0.00007081
2.3689577579,0.5742865801,0.1183041111,248,255,0,0.00127411,0.00129694,-0.00024223,-0.00000340
2.3689563274,0.5955659151,0.1165468991,239,255,0,-0.00008310,0.00026530,-0.00024366,-0.00006407
2.3689544201,0.6168377399,0.1211366877,255,246,0,0.00007669,0.00029399,-0.00024557,-0.00014228
2.3689525127,0.6381188631,0.1241414770,255,231,0,0.00027148,0.00041882,-0.00024748,-0.00020117
2.3689506054,0.6593992710,0.1251732707,255,225,0,0.00036327,0.00051198,-0.00024939,-0.00026071
2.3689508438,0.6806730628,0.1090610474,200,255,0,-0.00350896,0.01102566,-0.00154924,-0.01033694
2.3689510822,0.7019467950,0.0929468349,116,255,0,0.00141484,0.00424326,0.00175118,0.00359678
2.3689510822,0.7232106328,0.0768326297,32,255,0,0.00421763,0.01838868,-0.01754880,0.00352061
2.3689513206,0.7444836497,0.0587344207,0,193,61,0.00398642,0.02762988,-0.01694870,0.02145368
2.3689515591,0.7657572031,0.0420642085,0,106,148,0.01171221,0.01173139,-0.00024843,-0.00062281
2.3689489365,0.7870408297,0.0515099987,0,156,98,0.00267100,0.02099582,-0.01825118,-0.01002920
2.3689463139,0.8083238602,0.0594267808,0,197,57,0.00375678,0.01873542,-0.01825380,0.00192386
2.3689427376,0.8296024799,0.0816265792,58,255,0,0.00277258,0.02289405,-0.02155733,0.00719249
2.3689382076,0.8508923054,0.1069983616,190,255,0,0.00289837,0.01535224,0.00243831,-0.01487768
2.3689343929,0.8721808195,0.1292011440,255,204,0,-0.00002885,0.00116398,0.00113440,-0.00025916
2.3689310551,0.8934673071,0.1459529400,255,116,0,0.00229295,0.00250883,-0.00096893,-0.00031269
2.3689293861,0.9147478342,0.1474147290,255,109,0,0.00051473,0.00064886,-0.00027061,0.00028783
2.3689277172,0.9360176921,0.1468565166,255,112,0,0.00121652,0.00126548,-0.00027227,0.00021768
2.3689262867,0.9572972059,0.1456682980,255,118,0,-0.00191170,0.00215043,-0.00097370,0.00014722
2.3689250946,0.9785755277,0.1412701011,255,141,0,-0.00041990,0.00050912,-0.00027490,0.00008553
2.3689234257,0.9998558164,0.1420718729,255,136,0,-0.00097813,0.00101680,-0.00027657,0.00002581
2.3689219952,1.0211648941,0.1396536529,255,149,0,-0.00089635,0.00093912,-0.00027800,-0.00003505
2.3689208031,1.0423635244,0.1362454742,255,166,0,-0.00062452,0.00069757,-0.00027919,-0.00013649
2.3689205647,1.0636591911,0.1246472597,255,227,0,0.00012726,0.00039021,-0.00027943,-0.00024080
2.3689208031,1.0849518776,0.1059060395,185,255,0,0.00124604,0.00133837,0.00042081,-0.00024807
2.3689212799,1.1062448025,0.0877518132,90,255,0,0.00163081,0.00193484,-0.00097871,-0.00035524
2.3689184189,1.1275490522,0.0984506011,146,255,0,-0.00010540,0.00046068,-0.00028157,0.00034904
2.3689143658,1.1487575769,0.1206074134,255,248,0,0.00034741,0.00047656,-0.00028563,0.00015759
2.3689122200,1.1700603962,0.1277762055,255,210,0,-0.00068380,0.00081441,0.00041223,0.00016046
2.3689103127,1.1913609505,0.1292779744,255,203,0,0.00053798,0.00061404,-0.00028968,0.00006092
2.3689091206,1.2126597166,0.1262797564,255,218,0,-0.00098024,0.00124025,0.00040913,-0.00064027
2.3689079285,1.2338587046,0.1234715730,255,233,0,-0.00135843,0.00139663,-0.00029206,-0.00014126
2.3689060211,1.2551598549,0.1266333461,255,216,0,0.00035335,0.00055621,0.00040603,-0.00014019
2.3689038754,1.2764617205,0.1314451396,255,191,0,-0.00083487,0.00089655,-0.00029612,-0.00013828
2.3689024448,1.2977601290,0.1270369142,255,214,0,-0.00093308,0.00104409,0.00040245,-0.00023985
2.3689017296,1.3190577030,0.1210616976,255,245,0,-0.00067830,0.00077961,-0.00029826,-0.00024235
2.3689010143,1.3402545452,0.1125185117,219,255,0,-0.00019149,0.00043684,-0.00029898,0.00025451
2.3688991070,1.3615547419,0.1133212969,224,255,0,0.00010130,0.00040705,-0.00030088,0.00025475
2.3688974380,1.3828558922,0.1164010763,240,255,0,-0.00093892,0.00099871,-0.00030255,0.00015593
2.3688960075,1.4041554928,0.1151368544,234,255,0,0.00027686,0.00050758,0.00039601,0.00015545
2.3688948154,1.4253534079,0.1097776741,205,255,0,-0.00025233,0.00047088,0.00039482,-0.00004661
2.3688943386,1.4466497898,0.1002514511,156,255,0,0.00086445,0.00155006,-0.00030565,0.00124979
2.3688931465,1.4679485559,0.0971712396,140,255,0,0.00109424,0.00155411,0.00109315,-0.00015140
2.3688900471,1.4892534018,0.1097620204,205,255,0,0.00042202,0.00054375,-0.00030994,-0.00014663
2.3688867092,1.5105599165,0.1265147924,255,216,0,-0.00027521,0.00062081,-0.00031328,0.00045991
2.3688838482,1.5317652225,0.1401966214,255,145,0,0.00117663,0.00205048,0.00038385,-0.00163484
2.3688812256,1.5530682802,0.1483383924,255,103,0,0.00100839,0.00109106,-0.00031877,0.00026822
2.3688795567,1.5743687153,0.1491201669,255,98,0,-0.00000983,0.00041830,-0.00032043,0.00026870
2.3688786030,1.5956667662,0.1444619596,255,123,0,-0.00011805,0.00043022,0.00037861,0.00016677
2.3688776493,1.6168644428,0.1379937679,255,157,0,-0.00046623,0.00057047,-0.00032234,0.00006449
2.3688762188,1.6381634474,0.1356755495,255,169,0,-0.00070445,0.00079946,0.00037622,-0.00003660
2.3688752651,1.6594612598,0.1299973428,255,198,0,-0.00092265,0.00097889,-0.00032473,-0.00003874
2.3688745499,1.6807581186,0.1217991188,255,240,0,-0.00118088,0.00144399,0.00037456,-0.00074184
2.3688733578,1.7020556927,0.1156778932,237,255,0,-0.00046211,0.00058401,-0.00032663,-0.00014436
2.3688712120,1.7232584953,0.1225727126,255,237,0,-0.00048729,0.00068851,-0.00032878,0.00035846
2.3688688278,1.7445614338,0.1303344965,255,196,0,-0.00045550,0.00066917,-0.00033116,0.00036144
2.3688666821,1.7658630610,0.1345662773,255,174,0,-0.00181372,0.00211877,-0.00103331,0.00036311
2.3688650131,1.7871633768,0.1351680458,255,171,0,0.00005804,0.00043003,-0.00033498,0.00026333
2.3688635826,1.8084635735,0.1358098388,255,167,0,-0.00174016,0.00183052,0.00036359,-0.00043643
2.3688640594,1.8296555281,0.1152296513,234,255,0,-0.00003035,0.00036953,0.00036407,0.00005555
2.3688631058,1.8509526253,0.1074954346,195,255,0,0.00159544,0.00175444,-0.00033689,-0.00064743
2.3688607216,1.8722563982,0.1172642112,246,255,0,0.00051421,0.00061759,-0.00033927,-0.00004363
2.3688583374,1.8935587406,0.1233569980,255,232,0,0.00057700,0.00067183,-0.00034165,-0.00004125
2.3688564301,1.9147597551,0.1258288026,255,219,0,0.00054881,0.00069060,-0.00034356,-0.00024021
2.3688552380,1.9360588789,0.1238705888,255,229,0,0.00128059,0.00171521,-0.00104475,0.00045884
2.3688526154,1.9573619366,0.1316123605,255,189,0,0.00209236,0.00235194,-0.00104737,-0.00023806
2.3688502312,1.9786651134,0.1399341524,255,145,0,0.00073415,0.00164678,-0.00104976,-0.00103486
2.3688480854,1.9999674559,0.1459859312,255,114,0,0.00102593,0.00113442,-0.00035191,-0.00033247
2.3688464165,2.0211677551,0.1469877511,255,109,0,0.00034775,0.00052356,-0.00035357,0.00016785
2.3688449860,2.0424666405,0.1435695291,255,127,0,0.00092953,0.00099726,-0.00035501,0.00006676
2.3688437939,2.0637652874,0.1401413083,255,145,0,-0.00134869,0.00152970,0.00034380,-0.00063467
2.3688440323,2.0850589275,0.1239630952,255,228,0,-0.00048690,0.00059909,0.00034404,0.00005889
2.3688430786,2.1062564850,0.1174729094,247,255,0,0.00330291,0.01155309,-0.01105690,0.00055647
2.3688411713,2.1275570393,0.1192886904,255,253,0,0.00401869,0.01425471,-0.01235890,0.00585699
2.3688387871,2.1488606930,0.1280384660,255,207,0,0.00945847,0.03064444,0.01963878,-0.02153921
2.3688366413,2.1701626778,0.1333402544,255,180,0,0.01495025,0.02268866,0.01633668,-0.00493741
2.3688342571,2.1914646626,0.1386820376,255,151,0,0.00080204,0.00306131,0.00033426,-0.00293541
2.3688323498,2.2126665115,0.1433438510,255,127,0,-0.00296615,0.00590532,0.00503230,0.00086641
2.3688302040,2.2339677811,0.1471156329,255,108,0,-0.00189437,0.00418567,0.00363016,0.00086784
2.3688282967,2.2552690506,0.1499274224,255,93,0,-0.00183257,0.00306126,0.00232840,0.00076914
2.3688266277,2.2765703201,0.1528091878,255,78,0,-0.00291081,0.00302868,0.00032663,0.00077033
2.3688244820,2.2977716923,0.1564510167,255,59,0,0.00004102,0.00032830,0.00032449,-0.00002837
2.3688230515,2.3190705776,0.1538727880,255,72,0,-0.00114721,0.00119884,0.00032306,-0.00012946
2.3688220978,2.3403680325,0.1473645717,255,106,0,-0.00060543,0.00069839,0.00032210,-0.00013208
2.3688213825,2.3616657257,0.1414263546,255,137,0,-0.00058365,0.00067967,0.00032139,-0.00013423
2.3688199520,2.3829653263,0.1399581283,255,145,0,-0.00027187,0.00048096,0.00031996,-0.00023460
2.3688199520,2.4041590691,0.1241499484,255,227,0,-0.00016005,0.00049420,0.00031996,-0.00034094
2.3688185215,2.4254584312,0.1223517284,255,236,0,-0.00074827,0.00092538,0.00031853,-0.00044155
2.3688147068,2.4467666149,0.1437335014,255,125,0,-0.00039650,0.00057744,-0.00038528,0.00016665
2.3688130379,2.4680664539,0.1431052983,255,128,0,-0.00128470,0.00135200,-0.00038695,0.00016642
2.3688125610,2.4892628193,0.1334771067,255,178,0,0.00125711,0.01014855,-0.00038743,0.01006293
2.3688113689,2.5105617046,0.1307788789,255,192,0,0.00570887,0.00706557,0.00101137,-0.00403833
2.3688106537,2.5318582058,0.1219106615,255,238,0,-0.00037934,0.00054518,-0.00038934,-0.00004172
2.3688087463,2.5531597137,0.1259624362,255,217,0,-0.00143756,0.00233992,-0.00169134,-0.00074029
2.3688080311,2.5744564533,0.1170402318,246,255,0,-0.00121977,0.00209081,-0.00169206,-0.00014353
2.3688087463,2.5956475735,0.0940540507,126,255,0,0.00030305,0.00060477,-0.00039124,0.00034761
2.3688068390,2.6169486046,0.0964208320,139,255,0,-0.00072717,0.00089825,-0.00039315,-0.00035143
2.3688044548,2.6382513046,0.1039306074,177,255,0,-0.00029939,0.00049546,0.00030446,0.00025129
2.3688023090,2.6595530510,0.1084683836,201,255,0,-0.00101162,0.00111602,-0.00039768,0.00025296
2.3903689384,0.4253381789,0.1183048338,248,255,0,-0.00854516,0.00889718,0.00246882,-0.00021183
2.3903691769,0.4466114938,0.1009516194,157,255,0,-0.00128838,0.00211363,0.00046921,-0.00160852
2.3903667927,0.4678944945,0.1087394059,198,255,0,0.00197940,0.01090822,-0.00813317,0.00699449
2.3903651237,0.4891754687,0.1112181917,211,255,0,0.00187819,0.00672626,-0.00083494,-0.00640452
2.3903625011,0.5104488730,0.1200589910,255,252,0,-0.00398101,0.01122182,0.00246239,0.01019889
2.3903601170,0.5317310691,0.1257147789,255,222,0,-0.00945522,0.00970929,-0.00213981,-0.00053895
2.3903579712,0.5530137420,0.1326665580,255,186,0,0.00028656,0.00032825,-0.00014210,0.00007373
2.3903570175,0.5742908716,0.1252783537,255,225,0,-0.00071165,0.00084578,0.00045705,0.00000089
2.3903570175,0.5955654383,0.1111191437,211,255,0,0.00066914,0.00068730,-0.00014305,-0.00006455
2.3903548717,0.6168377399,0.1170429289,242,255,0,-0.00046707,0.00071955,-0.00014520,0.00052774
2.3903527260,0.6381198168,0.1224237233,255,240,0,-0.00005627,0.00025488,-0.00014734,-0.00020021
2.3903503418,0.6594017148,0.1273255050,255,214,0,0.00063550,0.00070213,-0.00014973,-0.00025827
2.3903505802,0.6806762218,0.1131942943,222,255,0,-0.00026570,0.00045206,-0.00014949,-0.00033379
2.3903503418,0.7019507885,0.0990650803,148,255,0,-0.00068792,0.00224505,0.00185037,-0.00106919
2.3903493881,0.7232180834,0.0919488668,111,255,0,0.00207387,0.00725643,0.00114942,0.00685811
2.3903496265,0.7444914579,0.0747796595,22,255,0,0.00443466,0.02335750,0.00244951,0.02280146
2.3903501034,0.7657640576,0.0556574501,0,177,77,0.00341445,0.01421614,-0.01354980,-0.00261593
2.3903470039,0.7870490551,0.0686932355,0,246,8,0.00057624,0.00679796,-0.00415301,-0.00535095
2.3903436661,0.8083357215,0.0858660266,80,255,0,0.00198302,0.00207648,-0.00015640,0.00059575
2.3903403282,0.8296120763,0.1022498161,165,255,0,0.00207981,0.00789285,-0.00555968,0.00520205
2.3903365135,0.8508999944,0.1228616089,255,237,0,0.00973161,0.02375198,0.00783658,-0.02020001
2.3903331757,0.8721861243,0.1387133896,255,154,0,0.00226340,0.00754691,-0.00356674,-0.00625390
2.3903307915,0.8934698105,0.1482251883,255,104,0,-0.00042482,0.00058190,-0.00016928,0.00035983
2.3903291225,0.9147502780,0.1495169699,255,97,0,-0.00078303,0.00093892,0.00042915,0.00029027
2.3903279305,0.9360187054,0.1452787519,255,120,0,0.00015876,0.00032041,-0.00017214,0.00021869
2.3903269768,0.9572965503,0.1397405565,255,148,0,-0.00027944,0.00035990,-0.00017309,0.00014657
2.3903260231,0.9785736799,0.1322723329,255,187,0,-0.00195767,0.00205099,-0.00017405,-0.00058633
2.3903243542,0.9998536110,0.1321841180,255,188,0,-0.00277588,0.00280823,0.00042439,0.00002360
2.3903229237,1.0211631060,0.1307459027,255,195,0,-0.00157410,0.00327967,-0.00287700,-0.00003684
2.3903214931,1.0423628092,0.1300177276,255,199,0,0.00088772,0.00101690,-0.00017858,0.00046277
2.3903200626,1.0636618137,0.1272695065,255,213,0,0.00002950,0.00048382,0.00042009,-0.00023818
2.3903195858,1.0849574804,0.1160222739,237,255,0,-0.00087772,0.00100263,0.00041962,-0.00024247
2.3903207779,1.1062480211,0.0916380584,110,255,0,0.00133706,0.00394849,-0.00287914,0.00234807
2.3903193474,1.1275472641,0.0895698369,100,255,0,0.00008984,0.00040640,-0.00018072,-0.00035274
2.3903157711,1.1487541199,0.1075376570,193,255,0,-0.00040235,0.00046862,-0.00018430,0.00015414
2.3903126717,1.1700605154,0.1237584427,255,231,0,-0.00118156,0.00120705,-0.00018740,0.00016057
2.3903107643,1.1913608313,0.1247802153,255,226,0,-0.00099979,0.00133945,-0.00088930,0.00006080
2.3903098106,1.2126582861,0.1182179973,249,255,0,-0.00243200,0.00297579,-0.00159025,-0.00064170
2.3903098106,1.2338532209,0.1048788205,180,255,0,-0.00093118,0.00192408,-0.00159025,0.00055325
2.3903074265,1.2551561594,0.1127325967,221,255,0,-0.00186741,0.00271303,-0.00159264,0.00115621
2.3903040886,1.2764617205,0.1270873845,255,214,0,-0.00140262,0.00172722,-0.00089598,0.00046170
2.3903026581,1.2977612019,0.1256191581,255,222,0,-0.00085084,0.00097114,0.00040269,-0.00023878
2.3903014660,1.3190599680,0.1224709377,255,238,0,0.00009093,0.00032458,-0.00019860,-0.00024009
2.3903007507,1.3402572870,0.1152237579,234,255,0,0.00001376,0.00047644,0.00040078,0.00025725
2.3902997971,1.3615540266,0.1070275381,191,255,0,-0.00044246,0.00054810,-0.00020027,0.00025403
2.3902978897,1.3828563690,0.1131123230,222,255,0,-0.00023767,0.00034904,-0.00020218,0.00015640
2.3902955055,1.4041583538,0.1180810928,249,255,0,0.00007109,0.00058337,-0.00020456,-0.00054169
2.3902940750,1.4253579378,0.1170909181,243,255,0,-0.00009909,0.00023243,-0.00020599,-0.00004208
2.3902931213,1.4466561079,0.1121926978,218,255,0,0.00054270,0.00058247,-0.00020695,-0.00004387
2.3902919292,1.4679540396,0.1070754826,192,255,0,0.00085548,0.00115400,-0.00020814,-0.00074601
2.3902897835,1.4892560244,0.1123442501,219,255,0,0.00018425,0.00031449,-0.00021029,-0.00014400
2.3902873993,1.5105589628,0.1196900383,255,252,0,-0.00000996,0.00045640,0.00038743,-0.00024104
2.3902838230,1.5317665339,0.1392788589,255,150,0,-0.00088114,0.00097854,-0.00021625,0.00036657
2.3902809620,1.5530706644,0.1501106322,255,94,0,0.00034063,0.00048709,-0.00021911,0.00027061
2.3902790546,1.5743716955,0.1526424140,255,80,0,-0.00038758,0.00061848,-0.00022101,-0.00042832
2.3902781010,1.5956698656,0.1479941905,255,104,0,0.00006419,0.00041948,0.00037813,0.00016987
2.3902771473,1.6168670654,0.1407060027,255,142,0,-0.00006400,0.00024144,-0.00022292,0.00006711
2.3902764320,1.6381641626,0.1332877874,255,180,0,-0.00005221,0.00023244,-0.00022364,-0.00003588
2.3902752399,1.6594628096,0.1297395825,255,199,0,-0.00133042,0.00134980,-0.00022483,-0.00003719
2.3902742863,1.6807603836,0.1234013587,255,232,0,-0.00029864,0.00037647,-0.00022578,-0.00003958
2.3902738094,1.7020564079,0.1129981354,223,255,0,-0.00102186,0.00137684,0.00037384,-0.00084364
2.3902723789,1.7232559919,0.1118609533,217,255,0,-0.00059905,0.00073308,-0.00022769,0.00035596
2.3902702332,1.7445580959,0.1173667312,246,255,0,-0.00104327,0.00112671,-0.00022984,0.00035810
2.3902680874,1.7658598423,0.1220985129,255,239,0,-0.00123148,0.00158577,-0.00093198,0.00035989
2.3902657032,1.7871623039,0.1281303018,255,207,0,-0.00124970,0.00341639,-0.00223422,0.00226235
2.3902640343,1.8084629774,0.1301720738,255,197,0,-0.00145793,0.00175239,-0.00093603,0.00026298
2.3902630806,1.8296599388,0.1224138960,255,237,0,-0.00036611,0.00051911,0.00036311,0.00005996
2.3902621269,1.8509576321,0.1161986738,240,255,0,0.00114867,0.00117447,-0.00023794,0.00005758
2.3902599812,1.8722599745,0.1224174574,255,237,0,0.00116745,0.00135286,-0.00024009,-0.00064003
2.3902575970,1.8935625553,0.1289992332,255,203,0,0.00144923,0.00146985,-0.00024247,-0.00003743
2.3902556896,1.9147642851,0.1334010512,255,180,0,0.00156105,0.00178743,-0.00024438,-0.00083566
2.3902542591,1.9360637665,0.1322528422,255,186,0,0.00090285,0.00104432,-0.00024581,0.00046372
2.3902523518,1.9573644400,0.1336046159,255,178,0,-0.00041538,0.00109705,-0.00094771,0.00036442
2.3902502060,1.9786664248,0.1388163865,255,151,0,-0.00006361,0.00042158,-0.00024986,-0.00033355
2.3902478218,1.9999699593,0.1481681764,255,103,0,-0.00130183,0.00164295,-0.00025225,0.00097001
2.3902459145,2.0211703777,0.1502299905,255,92,0,0.00009999,0.00032195,-0.00025415,0.00017047
2.3902444839,2.0424695015,0.1474617720,255,106,0,-0.00034823,0.00049477,0.00034451,0.00006962
2.3902435303,2.0637676716,0.1424235553,255,133,0,-0.00043644,0.00084161,0.00034356,-0.00063229
2.3902423382,2.0850663185,0.1397353411,255,146,0,-0.00044467,0.00084649,0.00034237,-0.00063372
2.3902418613,2.1062622070,0.1285971552,255,204,0,-0.00066285,0.00072459,-0.00025821,-0.00013781
2.3902404308,2.1275610924,0.1260989308,255,217,0,0.00164893,0.00747730,0.00434041,0.00586104
2.3902382851,2.1488640308,0.1334007084,255,179,0,0.01061071,0.02884008,0.00433826,0.02646399
2.3902359009,2.1701662540,0.1387625039,255,151,0,0.00181250,0.02668997,0.01103592,-0.02423382
2.3902339935,2.1914675236,0.1422842741,255,133,0,0.00265427,0.00934156,0.00633407,-0.00633240
2.3902320862,2.2126691341,0.1462560892,255,112,0,-0.00022390,0.00584683,0.00573206,-0.00113082
2.3902299404,2.2339704037,0.1497378796,255,94,0,0.00012788,0.00060805,-0.00027013,-0.00052953
2.3902280331,2.2552711964,0.1520696580,255,82,0,-0.00235035,0.00254917,-0.00097203,0.00017118
2.3902263641,2.2765722275,0.1540914327,255,71,0,-0.00021857,0.00035764,-0.00027370,0.00007224
2.3902246952,2.2977724075,0.1550832391,255,66,0,-0.00073676,0.00176444,-0.00097537,0.00127244
2.3902235031,2.3190710545,0.1513350308,255,85,0,-0.00119497,0.00142676,-0.00027657,-0.00072885
2.3902223110,2.3403685093,0.1451568007,255,118,0,-0.00159320,0.00181852,-0.00027776,-0.00083160
2.3902215958,2.3616664410,0.1392985880,255,148,0,-0.00198141,0.00272726,-0.00167847,-0.00083351
2.3902227879,2.3829555511,0.1106653735,212,255,0,-0.00078463,0.00549997,-0.00227714,-0.00494456
2.3902218342,2.4041533470,0.1051531956,183,255,0,-0.00135680,0.00235195,-0.00097823,0.00165343
2.3902192116,2.4254574776,0.1159389690,240,255,0,-0.00087103,0.00203638,-0.00098085,0.00155759
2.3902173042,2.4467582703,0.1184247509,252,255,0,0.00118475,0.00123669,0.00031734,0.00015831
2.3902139664,2.4680640697,0.1333875358,255,179,0,-0.00080246,0.00100650,-0.00028610,-0.00053596
2.3902127743,2.4892637730,0.1326993406,255,182,0,0.00652935,0.01434755,-0.00168729,0.01266384
2.3902120590,2.5105602741,0.1233711317,255,231,0,0.00739113,0.00883574,-0.00098801,-0.00473976
2.3902108669,2.5318582058,0.1184609085,253,255,0,-0.00074909,0.00080406,-0.00028920,-0.00004172
2.3902091980,2.5531589985,0.1200246885,255,248,0,-0.00154531,0.00158223,0.00030923,-0.00014091
2.3902082443,2.5744569302,0.1145984679,233,255,0,-0.00210153,0.00228305,-0.00029182,-0.00084305
2.3902075291,2.5956532955,0.1051932871,184,255,0,-0.00132671,0.00191616,0.00100756,-0.00094676
2.3902065754,2.6169505119,0.0978240669,145,255,0,0.00066806,0.00080908,-0.00029349,-0.00034952
2.3902049065,2.6382515430,0.1007288471,161,255,0,0.00000884,0.00039539,0.00030494,0.00025153
2.3902025223,2.6595540047,0.1070106328,193,255,0,-0.00042937,0.00058083,-0.00029755,0.00025392
2.4116673470,0.4253464639,0.1356480569,255,171,0,0.00061806,0.00069107,-0.00023270,-0.00020355
2.4116659164,0.4466257691,0.1338898540,255,180,0,0.00080985,0.00093558,-0.00023413,0.00040576
2.4116656780,0.4678997397,0.1182746366,248,255,0,-0.00257536,0.00457397,0.00376558,-0.00033027
2.4116642475,0.4891799688,0.1187714264,250,255,0,0.00088143,0.00618137,0.00246429,0.00559998
2.4116618633,0.5104523897,0.1251352131,255,225,0,-0.00060479,0.00277898,-0.00223804,0.00153238
2.4116597176,0.5317344069,0.1302070022,255,199,0,-0.00405300,0.00415754,0.00045967,0.00080442
2.4116580486,0.5530154705,0.1329987943,255,184,0,0.00031880,0.00040729,-0.00024199,0.00007546
2.4116568565,0.5742938519,0.1287205815,255,207,0,0.00022058,0.00032835,-0.00024319,0.00000387
2.4116563797,0.5955694318,0.1173013672,243,255,0,-0.00019863,0.00088399,0.00045633,-0.00073057
2.4116561413,0.6168348193,0.1053241640,180,255,0,-0.00066584,0.00088219,-0.00024390,0.00052482
2.4116532803,0.6381195784,0.1175759509,245,255,0,-0.00035405,0.00047584,-0.00024676,-0.00020045
2.4116508961,0.6594019532,0.1238777339,255,232,0,-0.00015227,0.00049683,-0.00024915,0.00040197
2.4116506577,0.6806778908,0.1132935286,222,255,0,0.00111353,0.00172541,-0.00084925,0.00100791
2.4116487503,0.7019584179,0.1147273183,230,255,0,-0.00454268,0.00477871,0.00114870,0.00093842
2.4116477966,0.7232260704,0.1084851027,198,255,0,0.00081510,0.00313684,0.00174785,-0.00247395
2.4116477966,0.7444993854,0.0911308974,107,255,0,0.00125489,0.00974422,-0.00955224,0.00145936
2.4116482735,0.7657725811,0.0735556781,16,255,0,-0.00124532,0.00219285,0.00114822,0.00139260
2.4116461277,0.7870543003,0.0780074745,39,255,0,-0.00020753,0.00202109,-0.00025392,0.00199431
2.4116425514,0.8083414435,0.0966232568,136,255,0,0.00027626,0.01262223,0.00044250,0.01261145
2.4116392136,0.8296184540,0.1146480441,230,255,0,0.00055804,0.00089119,0.00043917,0.00053847
2.4116358757,0.8509050012,0.1316538453,255,191,0,0.00085385,0.00715114,-0.00686407,0.00181502
2.4116332531,0.8721877337,0.1387956142,255,154,0,0.00565562,0.01239903,-0.00156665,-0.01092225
2.4116320610,0.8934674859,0.1381174028,255,157,0,0.00117740,0.00129250,0.00043201,-0.00031251
2.4116296768,0.9147496819,0.1438491940,255,127,0,-0.00102080,0.00139157,-0.00087023,-0.00037032
2.4116284847,0.9360184669,0.1406109929,255,144,0,-0.00094901,0.00108546,-0.00027156,-0.00045151
2.4116277695,0.9572957158,0.1334427893,255,181,0,-0.00046721,0.00056005,-0.00027227,0.00014573
2.4116272926,0.9785708189,0.1207295731,255,248,0,-0.00224043,0.00300884,-0.00157261,-0.00124919
2.4116268158,0.9998465776,0.1097213551,204,255,0,-0.00296865,0.00435421,0.00172687,0.00267661
2.4116241932,1.0211600065,0.1184971333,250,255,0,-0.00225287,0.00357938,-0.00087571,-0.00264001
2.4116227627,1.0423597097,0.1179619506,247,255,0,-0.00139805,0.00165638,-0.00087714,-0.00014031
2.4116208553,1.0636608601,0.1207177266,255,247,0,-0.00023227,0.00043483,-0.00027919,-0.00023913
2.4116196632,1.0849593878,0.1169375107,242,255,0,-0.00053249,0.00064810,-0.00028038,-0.00024056
2.4116191864,1.1062555313,0.1071992964,192,255,0,0.00018930,0.00049100,-0.00028086,0.00035548
2.4116191864,1.1275501251,0.0928000659,116,255,0,0.00056007,0.00192744,-0.00158072,0.00095010
2.4116172791,1.1487509012,0.0950608850,128,255,0,0.00142588,0.00185295,-0.00028276,-0.00114906
2.4116139412,1.1700580120,0.1132856682,223,255,0,-0.00057434,0.00066083,-0.00028610,0.00015807
2.4116115570,1.1913598776,0.1183064505,249,255,0,-0.00140355,0.00143414,-0.00028849,0.00005984
2.4116117954,1.2126528025,0.0999322310,154,255,0,-0.00269777,0.00380197,0.00041175,-0.00264716
2.4116122723,1.2338457108,0.0815590471,59,255,0,-0.00093795,0.00192306,-0.00158763,0.00054574
2.4116089344,1.2551522255,0.0983738303,146,255,0,-0.00049717,0.00079801,-0.00029111,0.00055218
2.4116053581,1.2764589787,0.1160176098,237,255,0,-0.00034239,0.00064398,-0.00029469,0.00045896
2.4116032124,1.2977615595,0.1223613918,255,238,0,-0.00086861,0.00098685,0.00040317,-0.00023842
2.4116015434,1.3190619946,0.1236131713,255,232,0,-0.00052683,0.00065063,-0.00029850,-0.00023806
2.4116001129,1.3402613401,0.1219049916,255,240,0,-0.00020501,0.00062812,0.00040007,-0.00043869
2.4115993977,1.3615574837,0.1119787693,217,255,0,0.00007877,0.00048165,0.00039935,0.00025749
2.4115979671,1.3828577995,0.1127565503,221,255,0,0.00139655,0.00152825,-0.00030208,-0.00054216
2.4115953445,1.4041608572,0.1205363274,255,248,0,0.00091632,0.00097896,-0.00030470,0.00016081
2.4115934372,1.4253617525,0.1231921464,255,234,0,0.00049215,0.00058110,-0.00030661,-0.00003827
2.4115922451,1.4466612339,0.1213839278,255,243,0,0.00105393,0.00109864,-0.00030780,-0.00003874
2.4115910530,1.4679589272,0.1157427058,237,255,0,-0.00058729,0.00071950,0.00039101,-0.00014102
2.4115884304,1.4892624617,0.1247674897,255,225,0,-0.00059251,0.00068344,-0.00031161,-0.00013757
2.4115855694,1.5105671883,0.1367992759,255,163,0,-0.00058073,0.00271859,0.00238562,0.00116718
2.4115841389,1.5317670107,0.1366710961,255,163,0,0.00167109,0.00236789,0.00038409,-0.00163305
2.4115810394,1.5530720949,0.1498628706,255,94,0,-0.00046714,0.00068624,0.00038099,-0.00032794
2.4115791321,1.5743736029,0.1536746472,255,75,0,-0.00084536,0.00094470,-0.00032091,0.00027359
2.4115779400,1.5956724882,0.1506664306,255,91,0,-0.00096357,0.00111983,0.00037789,-0.00042748
2.4115767479,1.6168704033,0.1450782418,255,119,0,-0.00102176,0.00107400,-0.00032330,0.00007045
2.4115765095,1.6381651163,0.1315900385,255,189,0,-0.00030996,0.00044941,-0.00032353,-0.00003493
2.4115757942,1.6594630480,0.1262618005,255,217,0,-0.00154820,0.00158222,-0.00032425,-0.00003695
2.4115746021,1.6807614565,0.1219335869,255,240,0,-0.00112642,0.00117312,-0.00032544,-0.00003850
2.4115736485,1.7020585537,0.1144683659,231,255,0,-0.00066163,0.00113378,0.00037360,-0.00084150
2.4115729332,1.7232556343,0.1070151851,192,255,0,0.00014518,0.00053533,0.00037289,0.00035560
2.4115712643,1.7445554733,0.1066709682,190,255,0,-0.00055903,0.00073958,-0.00032878,0.00035548
2.4115698338,1.7658551931,0.1058337465,186,255,0,-0.00160626,0.00167569,-0.00033021,-0.00034475
2.4115672112,1.7871581316,0.1133025289,225,255,0,-0.00157747,0.00185066,-0.00093269,0.00025809
2.4115648270,1.8084621429,0.1237643063,255,230,0,-0.00019570,0.00046839,-0.00033522,0.00026214
2.4115626812,1.8296635151,0.1275161207,255,210,0,-0.00000387,0.00034332,-0.00033736,0.00006354
2.4115614891,1.8509624004,0.1242979020,255,227,0,0.00075790,0.00083242,-0.00033855,0.00006235
2.4115595818,1.8722634315,0.1271096766,255,213,0,0.00126968,0.00187468,-0.00034046,-0.00133657
2.4115569592,1.8935668468,0.1361414641,255,166,0,0.00098146,0.00104023,-0.00034308,-0.00003314
2.4115550518,1.9147679806,0.1389832795,255,151,0,0.00113328,0.00144758,-0.00034499,-0.00083196
2.4115536213,1.9360680580,0.1392850578,255,149,0,0.00010505,0.00042995,-0.00034642,-0.00023198
2.4115521908,1.9573668242,0.1358768344,255,167,0,0.00026684,0.00049656,-0.00034785,-0.00023317
2.4115509987,1.9786653519,0.1320086271,255,186,0,-0.00002137,0.00048400,-0.00034904,-0.00033462
2.4115483761,1.9999697208,0.1436704099,255,126,0,0.00005041,0.00044345,0.00034833,0.00026977
2.4115459919,2.0211720467,0.1498722136,255,94,0,-0.00041778,0.00057404,-0.00035405,0.00017214
2.4115445614,2.0424716473,0.1490140110,255,98,0,-0.00122599,0.00127550,0.00034451,0.00007176
2.4115433693,2.0637698174,0.1437757909,255,125,0,-0.00024422,0.00042707,0.00034332,0.00006986
2.4115426540,2.0850667953,0.1366675645,255,163,0,0.00009756,0.00037643,-0.00035739,0.00006676
2.4115414619,2.1062655449,0.1326293796,255,183,0,0.00170939,0.00424034,0.00034142,0.00386548
2.4115400314,2.1275641918,0.1296211630,255,199,0,0.00621116,0.02302208,-0.00365996,0.02186418
2.4115381241,2.1488664150,0.1351529360,255,170,0,0.01070294,0.03885713,0.02563810,0.02716637
2.4115359783,2.1701676846,0.1383847296,255,154,0,0.00339472,0.03873785,0.02763605,-0.02693224
2.4115340710,2.1914687157,0.1412565112,255,139,0,0.00351651,0.02784346,0.02633405,-0.00833130
2.4115324020,2.2126700878,0.1444883198,255,121,0,0.00344832,0.02093957,0.00303245,-0.02042985
2.4115302563,2.2339711189,0.1475801021,255,105,0,0.00128010,0.00245864,0.00103021,-0.00182891
2.4115283489,2.2552721500,0.1497718841,255,94,0,0.00102188,0.00108704,0.00032830,0.00017214
2.4115266800,2.2765729427,0.1520636678,255,82,0,0.00249366,0.00307605,0.00162673,0.00077295
2.4115250111,2.2977731228,0.1520954818,255,82,0,0.00005548,0.00033076,0.00032496,-0.00002694
2.4115238190,2.3190715313,0.1478972584,255,103,0,-0.00075275,0.00111297,-0.00037622,-0.00072837
2.4115226269,2.3403692245,0.1426490545,255,130,0,-0.00171095,0.00174601,0.00032258,-0.00013089
2.4115221500,2.3616664410,0.1347708106,255,171,0,-0.00219919,0.00238201,-0.00037789,-0.00083351
2.4115262032,2.3829450607,0.0796585977,50,255,0,0.00054860,0.00196403,0.00162625,-0.00095487
2.4115264416,2.4041378498,0.0608454198,0,208,46,-0.00025258,0.00057839,-0.00037360,-0.00036216
2.4115207195,2.4254543781,0.1035832018,175,255,0,0.00042320,0.00069318,0.00032067,-0.00044560
2.4115178585,2.4467582703,0.1139459834,229,255,0,-0.00117402,0.00150369,-0.00038218,0.00085831
2.4115149975,2.4680626392,0.1251897514,255,222,0,0.00520975,0.00774358,0.00561500,-0.00113726
2.4115135670,2.4892630577,0.1264415681,255,215,0,0.01354157,0.01441248,-0.00168633,-0.00463700
2.4115126133,2.5105600357,0.1182463616,252,255,0,0.00481636,0.00534297,0.00231266,-0.00004005
2.4115114212,2.5318584442,0.1149091423,234,255,0,-0.00053086,0.00086292,-0.00038862,0.00055838
2.4115097523,2.5531594753,0.1169279218,245,255,0,-0.00060208,0.00090992,-0.00039029,0.00055957
2.4115080833,2.5744593143,0.1166687012,243,255,0,-0.00038130,0.00050996,0.00030804,-0.00014067
2.4115068913,2.5956571102,0.1106495187,213,255,0,-0.00007048,0.00053581,-0.00039315,0.00035715
2.4115061760,2.6169540882,0.1028053015,171,255,0,-0.00064470,0.00079311,0.00030613,-0.00034595
2.4115054607,2.6382510662,0.0953590795,133,255,0,0.00021708,0.00045103,0.00030541,0.00025105
2.4115030766,2.6595540047,0.1030438617,173,255,0,-0.00083614,0.00095979,-0.00039697,0.00025392
2.4330668449,0.4253495932,0.1395803094,255,151,0,0.00002031,0.00024141,-0.00013304,-0.00020042
2.4330654144,0.4466287196,0.1373520941,255,162,0,0.00051209,0.00059041,-0.00013447,-0.00026128
2.4330649376,0.4679041505,0.1255238801,255,224,0,-0.00685611,0.00790441,0.00316501,-0.00233585
2.4330637455,0.4891839623,0.1249656677,255,226,0,0.00176567,0.00404138,-0.00283623,0.00227398
2.4330620766,0.5104532838,0.1232774630,255,235,0,0.00073747,0.00159320,-0.00083804,-0.00113672
2.4330599308,0.5317348838,0.1273392439,255,214,0,-0.00243075,0.00243851,-0.00013995,0.00013489
2.4330582619,0.5530164838,0.1315110326,255,192,0,-0.00070897,0.00072701,-0.00014162,0.00007647
2.4330568314,0.5742954016,0.1285728216,255,207,0,0.00025283,0.00029054,-0.00014305,0.00000542
2.4330556393,0.5955731869,0.1229246110,255,237,0,-0.00020539,0.00025733,-0.00014424,-0.00005680
2.4330561161,0.6168365479,0.1056114063,182,255,0,0.00043140,0.00047682,-0.00014377,-0.00014347
2.4330542088,0.6381172538,0.1075121909,192,255,0,-0.00036781,0.00119465,-0.00014567,0.00112724
2.4330513477,0.6594017744,0.1191289797,252,255,0,-0.00020102,0.00047319,-0.00014853,0.00040179
2.4330492020,0.6806840301,0.1250617802,255,225,0,0.00219178,0.00280142,0.00054932,-0.00165600
2.4330470562,0.7019661069,0.1303935647,255,198,0,-0.00285643,0.00574607,0.00254703,0.00428611
2.4330463409,0.7232322693,0.1204643473,255,249,0,-0.00874565,0.01353594,0.00984645,-0.00312775
2.4330461025,0.7445073724,0.1076671407,193,255,0,0.00054714,0.00657820,0.00054622,-0.00653261
2.4330465794,0.7657805085,0.0899069235,100,255,0,-0.00536308,0.00561565,-0.00155354,-0.00059950
2.4330446720,0.7870609760,0.0912617072,108,255,0,-0.00459329,0.00628692,-0.00155544,0.00400096
2.4330413342,0.8083475828,0.1082874984,196,255,0,-0.01077250,0.01145305,0.00384140,0.00060761
2.4330379963,0.8296239972,0.1249142885,255,226,0,-0.00589570,0.00602157,-0.00016189,0.00121397
2.4330348969,0.8509092927,0.1385560781,255,155,0,-0.00214392,0.00215784,-0.00016499,-0.00018072
2.4330329895,0.8721906543,0.1421778649,255,136,0,0.00183786,0.00727880,-0.00486708,0.00509065
2.4330320358,0.8934692144,0.1383796632,255,156,0,-0.00007033,0.00036014,-0.00016785,-0.00031078
2.4330303669,0.9147490859,0.1380714476,255,157,0,-0.00100856,0.00108789,-0.00016952,-0.00037092
2.4330289364,0.9360178709,0.1348032355,255,174,0,-0.00028676,0.00039864,-0.00017095,0.00021785
2.4330282211,0.9572957158,0.1293350160,255,203,0,-0.00155498,0.00185544,-0.00087190,-0.00051427
2.4330279827,0.9785699844,0.1144868061,229,255,0,-0.00094319,0.00231015,-0.00087214,-0.00192004
2.4330289364,0.9998403788,0.0895505995,99,255,0,-0.00092140,0.00114597,-0.00017095,-0.00065958
2.4330296516,1.0211415291,0.0665333718,0,234,20,-0.00233063,0.00257356,-0.00087047,-0.00065851
2.4330251217,1.0423525572,0.0952261910,129,255,0,-0.00042781,0.00209295,-0.00087500,0.00185251
2.4330217838,1.0636595488,0.1131279692,222,255,0,-0.00028203,0.00041119,-0.00017810,-0.00024045
2.4330193996,1.0849615335,0.1183407530,249,255,0,-0.00062925,0.00069668,-0.00018048,-0.00023842
2.4330186844,1.1062594652,0.1131055355,222,255,0,0.00161554,0.00166493,-0.00018120,0.00035942
2.4330179691,1.1275559664,0.1036463082,173,255,0,0.00048631,0.00062952,-0.00018191,0.00035596
2.4330170155,1.1487534046,0.0972291306,139,255,0,0.00093813,0.00105496,-0.00018287,-0.00044656
2.4330146313,1.1700567007,0.1055649146,183,255,0,0.00009491,0.00026058,-0.00018525,0.00015676
2.4330122471,1.1913591623,0.1119666919,216,255,0,-0.00110331,0.00112071,-0.00018764,0.00005913
